# .PCD v0.7 - Point Cloud Data file format
VERSION 0.7
FIELDS x y z
SIZE 4 4 4
TYPE F F F
COUNT 1 1 1
WIDTH 1343
HEIGHT 1
VIEWPOINT 0 0 0 1 0 0 0
POINTS 1343
DATA ascii
-0.0025171684 0.023329156 0.11064214
-0.0020170761 0.02349228 0.11141369
-0.0015325372 0.024011735 0.11387557
-0.0010152509 0.024295405 0.11521965
-0.00047711295 0.024156339 0.11455944
5.4750562e-05 0.023953674 0.11359812
0.00057495601 0.023638936 0.11210579
0.0010940519 0.023599483 0.11191949
0.0016272905 0.023792231 0.11283486
0.0021209295 0.023453154 0.11122853
0.0026432057 0.023501566 0.11146033
0.0032209542 0.023946535 0.11357335
0.0037032021 0.02365616 0.11219918
0.0042126486 0.023589764 0.11188767
0.0047543021 0.02369849 0.11240713
0.005257077 0.023611076 0.11199652
0.0057224571 0.023386586 0.11093592
0.006190157 0.023207888 0.11009262
0.0066939406 0.02318142 0.10997158
0.0071901269 0.023134263 0.10975243
0.0077585918 0.023310512 0.11059321
0.0083886422 0.023638412 0.11215348
0.0088798255 0.023559533 0.11178371
0.0093280403 0.023381663 0.11094399
0.0098652923 0.023433914 0.11119585
0.01037491 0.02341859 0.11112671
0.01081997 0.0232659 0.11040521
0.011288893 0.023176018 0.10998119
0.011656715 0.022895338 0.10865106
0.012095983 0.022772461 0.108069
0.012747958 0.023043871 0.10935724
0.013140471 0.022843432 0.10840529
0.013458569 0.022533199 0.10693131
0.013853071 0.022368409 0.10614641
0.014405847 0.022461725 0.10658505
0.014537244 0.021913651 0.1039789
0.015063351 0.02197668 0.10427106
0.015545572 0.02197375 0.10424865
0.015959769 0.021877753 0.10378303
0.016586581 0.022070287 0.10468424
0.017112378 0.022121271 0.10491192
0.017644558 0.022177452 0.10516208
0.017647563 0.021583412 0.10232716
0.018704876 0.022276156 0.1055904
0.019022318 0.022074873 0.1046129
0.019217862 0.021745693 0.10302723
0.019402081 0.021420026 0.10145625
0.019940391 0.021491466 0.10176359
0.020417381 0.021495033 0.1017464
0.020832671 0.021434953 0.10142484
0.02113748 0.021266386 0.10058705
0.021700328 0.021359112 0.10098179
0.021800974 0.021002624 0.099249691
0.021848422 0.020610772 0.097348481
0.022096094 0.020419916 0.096394233
0.022544248 0.020418255 0.096329652
0.022988126 0.02041286 0.096243374
0.02341135 0.020389687 0.09606912
0.023915537 0.02043657 0.096220426
0.023913393 0.020057045 0.094360746
0.024440955 0.020127514 0.094614565
0.024659114 0.01994521 0.093675777
0.025265526 0.02007783 0.094211303
0.025289156 0.019750733 0.092585467
0.025152735 0.019311823 0.090433896
0.025067637 0.018926263 0.088531025
0.02528259 0.01877616 0.087727033
0.025540764 0.018662469 0.087089233
0.025901778 0.018626336 0.086808696
0.026785716 0.018961506 0.088251129
0.027791237 0.019371128 0.090029374
0.030444397 0.020899424 0.096987359
0.032325357 0.021859972 0.10128636
0.030495608 0.020319793 0.093996063
0.031866528 0.020925997 0.09663476
0.034385111 0.022257796 0.10260151
0.035504218 0.022658987 0.10425663
0.035956584 0.022629427 0.10391911
0.034055337 0.021139687 0.096882701
0.034741297 0.021274477 0.09729708
0.036321521 0.021946002 0.10015146
0.039061662 0.023291515 0.10605457
0.038535789 0.022679932 0.10303217
0.040079076 0.023286212 0.10553603
0.041621491 0.02387666 0.10794923
0.042267099 0.023944326 0.10798623
0.040723842 0.022785621 0.10250031
0.044506703 0.024598883 0.11037244
0.046570785 0.025429975 0.11380433
0.04543221 0.024513284 0.10941419
0.042351484 0.022582546 0.10053141
0.041671593 0.021961955 0.097512513
0.04496086 0.023423443 0.10373173
0.049213897 0.025348155 0.11196889
0.050373469 0.025654223 0.11303867
0.047167841 0.023755062 0.1044184
0.047565728 0.023692498 0.10390318
0.050512336 0.024887035 0.10890343
0.052304823 0.025493389 0.11132902
0.051485244 0.024827262 0.10821614
0.050590992 0.024139518 0.1050393
0.055241771 0.026084362 0.11333074
0.056605589 0.026453085 0.1147831
0.048607353 0.022483781 0.097453974
0.041158482 0.018846134 0.081616633
0.041554712 0.018837485 0.081527777
0.045011815 0.020202832 0.087402157
0.049454752 0.021979576 0.095073044
0.056442939 0.024842091 0.10746188
0.059132107 0.025775671 0.11153284
0.045677915 0.019721549 0.08538004
0.040647417 0.017384222 0.075315781
0.10914644 0.046244264 0.20053662
nan nan nan
-0.04404299 0.017778298 0.076515995
-0.044827133 0.018253695 0.078383461
-0.040414978 0.016602829 0.071141757
-0.039533511 0.016385853 0.070071466
nan nan nan
-0.034551136 0.014581381 0.062133867
-0.037716378 0.016063357 0.068344206
-0.041404426 0.017797528 0.0756201
-0.035268899 0.015302017 0.064941019
-0.034829769 0.015254195 0.064675078
-0.040493511 0.017903779 0.075850368
-0.051214006 0.02286168 0.096800573
-0.047587551 0.021449298 0.090789169
-0.042540006 0.019362375 0.081946015
-0.034864157 0.016025936 0.067832798
-0.0359504 0.01669067 0.070670329
-0.035470705 0.016634479 0.070472501
-0.041484449 0.019653436 0.083328873
-0.042572122 0.020376874 0.086484537
-0.044134937 0.021345194 0.090706691
-0.046877816 0.022910656 0.097500175
-0.046215348 0.022827441 0.09730579
-0.041635886 0.020786855 0.088769242
-0.041004155 0.020694232 0.088549614
-0.047474392 0.024223264 0.10387171
-0.047237899 0.024370711 0.10474062
-0.045284458 0.023625717 0.10177959
-0.044702657 0.023587516 0.10186487
-0.040549695 0.02164242 0.093700901
-0.041286614 0.022292268 0.096762881
-0.043080706 0.023534961 0.10242302
-0.040588904 0.022437992 0.097904705
-0.038533796 0.021558875 0.094314955
-0.041085292 0.023267066 0.10205264
-0.042439401 0.024331007 0.106994
-0.041156016 0.023890549 0.10532368
-0.040093303 0.023568649 0.10416339
-0.03936198 0.02343579 0.10382872
-0.037553955 0.022650078 0.10058645
-0.036115341 0.022069404 0.098234586
-0.0368407 0.02281324 0.10177367
-0.036392603 0.022840727 0.10211801
-0.037617061 0.023933096 0.10722692
-0.039675862 0.025594069 0.11490122
-0.038887214 0.02543916 0.11442897
-0.037203133 0.024685666 0.11124833
-0.034877934 0.023478717 0.10600003
-0.031759091 0.021694094 0.098112397
-0.030602243 0.02121635 0.096110716
-0.030031757 0.0211368 0.095902048
-0.029488107 0.021073977 0.095761657
-0.029320464 0.021282107 0.096846983
-0.02901097 0.021392262 0.097482115
-0.027282484 0.020442722 0.093277074
-0.027337508 0.020820327 0.095118172
-0.026775999 0.020733148 0.094831713
-0.026236435 0.020660285 0.094604231
-0.025790488 0.020659901 0.094702758
-0.025891829 0.021105623 0.096842892
-0.025643049 0.021276793 0.097720742
-0.025566421 0.021599635 0.099292077
-0.025366891 0.021828696 0.10042945
-0.024989463 0.021910442 0.10088527
-0.024763631 0.022130819 0.10197563
-0.024513405 0.022337625 0.10300019
-0.023958664 0.022269672 0.10275374
-0.023410853 0.022205515 0.10252
-0.023183906 0.02244937 0.10370461
-0.022953777 0.022700483 0.1049199
-0.022588059 0.022825528 0.10554945
-0.022058552 0.022786941 0.10541871
-0.021735838 0.022965085 0.10628726
-0.021212285 0.02293439 0.10618604
-0.020766327 0.022988128 0.10647243
-0.020013504 0.022696489 0.10515561
-0.019746181 0.02295462 0.10638285
-0.01951969 0.02327471 0.10789511
-0.019080726 0.023351656 0.1082779
-0.018658603 0.023453945 0.10877577
-0.018135425 0.02343137 0.1086921
-0.017437343 0.023175042 0.10752154
-0.016871734 0.023084849 0.1071193
-0.016417565 0.023146288 0.10741859
-0.016059743 0.023351669 0.10838411
-0.015553985 0.023348277 0.10837894
-0.015059562 0.023362245 0.10845266
-0.014692853 0.023582159 0.10948092
-0.014128909 0.023489932 0.10905868
-0.013620405 0.023486439 0.10904706
-0.013070284 0.023408148 0.10868689
-0.012900461 0.024032015 0.11158591
-0.012397388 0.024061309 0.11172323
-0.011920825 0.024146866 0.11212087
-0.011623066 0.024618965 0.11431252
-0.011213698 0.024888534 0.11556304
-0.010596848 0.024701549 0.11469305
-0.0098878331 0.024268573 0.11268039
-0.0093591837 0.024254629 0.11261293
-0.0088540893 0.02430369 0.11283766
-0.0082688201 0.024125008 0.11200477
-0.0076402039 0.023787377 0.11043381
-0.0071224379 0.023771115 0.11035477
-0.0067014294 0.024100296 0.11187928
-0.0062366673 0.024314247 0.11286882
-0.0057165911 0.02433203 0.11294777
-0.0051510497 0.024140328 0.11205446
-0.0045991177 0.023976486 0.11129069
-0.0040776967 0.023950348 0.11116637
-0.0035545288 0.023904882 0.11095257
-0.0030458532 0.023957988 0.11119662
-0.0024948712 0.023632048 0.10968174
-0.0020023289 0.023834432 0.11061929
-0.0015272667 0.024456479 0.1135049
-0.0010123434 0.024759687 0.11491111
-0.00047790629 0.024729721 0.11477143
5.4469263e-05 0.024355751 0.11303566
0.00057434483 0.024134178 0.11200757
0.0010929065 0.024094287 0.1118231
0.0016245018 0.024274865 0.11266227
0.0021370775 0.02415248 0.11209575
0.0026311639 0.02391004 0.11097237
0.003172924 0.024109285 0.11189932
0.0036981616 0.02414456 0.11206558
0.0042053959 0.024068097 0.1117135
0.0047565158 0.024232002 0.11247738
0.0052808626 0.024240572 0.11252046
0.0057762582 0.024126671 0.11199523
0.0061809453 0.023684019 0.10994398
0.0066079525 0.023387922 0.108573
0.0071364925 0.023467695 0.10894688
0.0076872227 0.023605047 0.10958806
0.0082849944 0.02386082 0.11077891
0.0087726023 0.023787959 0.11044388
0.0092217335 0.02362458 0.10968824
0.0098206624 0.023841973 0.11070017
0.010330667 0.023832591 0.11065874
0.010790831 0.023714568 0.11011234
0.01118153 0.023461467 0.1089381
0.011670763 0.023428077 0.10878331
0.012126874 0.023333726 0.10834467
0.012494449 0.023083325 0.10718056
0.012897583 0.022915285 0.10639788
0.01342794 0.022977347 0.10668251
0.01393326 0.022993671 0.10675354
0.014433131 0.023000186 0.10677773
0.014864713 0.022901066 0.10631008
0.01520355 0.022670023 0.1052286
0.015654249 0.022614982 0.10496252
0.016126702 0.022593739 0.10485157
0.016616844 0.022597799 0.10485615
0.017244782 0.022783685 0.10570224
0.017684175 0.022717064 0.10537457
0.018245522 0.022806475 0.10576836
0.018733321 0.022801671 0.10572264
0.019144589 0.022706352 0.10525475
0.019212762 0.022218997 0.10296757
0.019388771 0.021877037 0.10135245
0.01980521 0.021816161 0.10103717
0.020282896 0.021824012 0.1010372
0.02064532 0.021710297 0.1004714
0.021059847 0.0216552 0.10017385
0.021365909 0.021493381 0.099379569
0.021744203 0.021409554 0.098942824
0.02186317 0.021079183 0.097363926
0.022272374 0.021036403 0.097110473
0.022874579 0.021173978 0.097685285
0.023090368 0.020955482 0.096613482
0.023335593 0.020771578 0.095698081
0.023692561 0.020692186 0.095260642
0.024136955 0.02069068 0.095177457
0.023985945 0.020188095 0.092786536
0.024404904 0.020174595 0.092640743
0.024703017 0.020063421 0.092042036
0.025241172 0.020147674 0.092334904
0.025869546 0.020299874 0.092932783
0.025830938 0.019932335 0.091147013
0.025624504 0.019449444 0.088832818
0.025764452 0.019240778 0.087769441
0.026130749 0.019205084 0.087490946
0.026759099 0.019360103 0.088074803
0.028140826 0.020047046 0.091067173
0.030977016 0.021733668 0.098578371
0.032097429 0.022184158 0.10046104
0.032843925 0.022366783 0.10111901
0.032916624 0.022091907 0.099702276
0.034484357 0.022813948 0.10277385
0.035089452 0.022887779 0.10291145
0.034458283 0.022164367 0.0994628
0.034473822 0.021871032 0.097946212
0.034366015 0.021508422 0.096118674
0.039690815 0.024510259 0.1092941
0.037208602 0.022675496 0.10088456
0.036618546 0.022026481 0.097769417
0.036896877 0.021909742 0.097019225
0.039048899 0.022894505 0.10113217
0.039501004 0.022870455 0.10077386
0.03975473 0.022733556 0.099916287
0.040832385 0.023065416 0.10111388
0.04182614 0.023342464 0.10206247
0.044808708 0.024709649 0.10775825
0.041572105 0.022655459 0.098542124
0.043682363 0.023529004 0.10207634
0.044746902 0.023825696 0.10309895
0.048409928 0.02548353 0.10999625
0.047455423 0.024700707 0.10635753
0.047680903 0.024542632 0.10542902
0.046144746 0.023491215 0.10068686
0.048129112 0.02423539 0.10365798
0.048720501 0.024269681 0.1036018
0.048028111 0.023670534 0.10086367
0.049333569 0.024058271 0.10235163
0.055286217 0.026680626 0.11334858
0.056924641 0.027188411 0.11536784
0.056781128 0.026843421 0.11379284
nan nan nan
0.04288746 0.019870074 0.084124818
0.048403922 0.022204079 0.093979076
0.053906862 0.024486225 0.10363197
0.05767503 0.025943756 0.10981884
0.05275929 0.023504555 0.099532418
0.043473106 0.019183239 0.081282467
0.046079941 0.020141911 0.08541397
0.060539618 0.026215278 0.1112816
-0.037813984 0.01545848 0.06534934
-0.040941812 0.01688282 0.071196817
-0.043582324 0.018129457 0.076276936
-0.044175852 0.018539127 0.077829801
-0.042291984 0.017907146 0.07502228
-0.040844597 0.017450247 0.07296849
-0.034788668 0.014998186 0.062604986
-0.044917148 0.019542633 0.081444204
-0.037511386 0.016471785 0.068548642
-0.033045322 0.014646414 0.060876399
-0.032331217 0.014465227 0.060059886
-0.035541005 0.016052902 0.066594765
-0.042657837 0.019452827 0.080646582
-0.046917055 0.021603048 0.089521483
-0.042524401 0.0197726 0.081918143
-0.036996488 0.01737278 0.071975864
-0.033643149 0.015956266 0.06612242
-0.041927814 0.020086588 0.083276562
-0.041084908 0.019883832 0.082492545
-0.043281227 0.021162959 0.087879278
-0.048494492 0.023959324 0.099603646
-0.049311329 0.024619624 0.10248588
-0.049379691 0.024916319 0.1038808
-0.047458649 0.024204772 0.10108856
-0.046794087 0.024125533 0.10094897
-0.046633925 0.024307473 0.1019191
-0.046135999 0.024315441 0.10217563
-0.046061933 0.024549494 0.10339689
-0.043555632 0.023477819 0.099120669
-0.042507675 0.023176624 0.098091453
-0.043270122 0.023866996 0.10126938
-0.044482857 0.024824925 0.10560502
-0.040036414 0.022609781 0.096431457
-0.037917793 0.021671645 0.092670739
-0.040081192 0.023187844 0.099411361
-0.041794542 0.024477946 0.10521234
-0.042091113 0.024960183 0.10755778
-0.040694579 0.024437904 0.10557054
-0.039966419 0.024308741 0.10527004
-0.036919713 0.022747669 0.098745815
-0.035490844 0.02215541 0.096399486
-0.040000156 0.025303777 0.11034822
-0.037167668 0.023830146 0.10415064
-0.038374167 0.024941212 0.1092389
-0.03916233 0.025807507 0.11326586
-0.039913189 0.026673311 0.11729815
-0.0378564 0.02566074 0.11306094
-0.03527157 0.02425565 0.10706645
-0.033660192 0.023488462 0.10386281
-0.032518815 0.023031205 0.10201301
-0.03043491 0.021882407 0.097081378
-0.029992063 0.021896286 0.097293213
-0.030140391 0.022348955 0.099451266
-0.029829476 0.022470079 0.1001311
-0.028461788 0.021786204 0.097213879
-0.027619541 0.021488676 0.096008696
-0.026955759 0.021322377 0.095381312
-0.025953583 0.020878216 0.093502052
-0.026039187 0.021308886 0.095535003
-0.025630672 0.021343226 0.095787957
-0.02573604 0.021814374 0.097998239
-0.025899203 0.022352567 0.10050879
-0.025465734 0.022386249 0.10074798
-0.024836587 0.022245938 0.10019872
-0.024368275 0.022247054 0.10028112
-0.024035176 0.022374079 0.10092684
-0.023793738 0.022593237 0.10198472
-0.023422597 0.022695677 0.10251234
-0.023057228 0.022808108 0.10308143
-0.022801338 0.023035938 0.10416882
-0.022433473 0.023158101 0.10477529
-0.021883754 0.023093801 0.10453442
-0.021453755 0.023155786 0.10486153
-0.02101271 0.023208462 0.10514317
-0.020559534 0.023249935 0.10537089
-0.020125017 0.023315048 0.10570268
-0.019662749 0.023350477 0.10589698
-0.019462142 0.023706451 0.1075426
-0.01922035 0.024029717 0.10903785
-0.018599184 0.02388335 0.10839961
-0.017986333 0.023739804 0.10777132
-0.017492784 0.023750007 0.10783849
-0.016952952 0.023696123 0.10761236
-0.016463179 0.023711054 0.10769661
-0.016082803 0.023889421 0.10852131
-0.015346324 0.023533262 0.1069159
-0.015051601 0.023853356 0.10838108
-0.014574517 0.023896601 0.1085869
-0.014051145 0.023864338 0.1084481
-0.013468469 0.023725204 0.10782222
-0.013305162 0.024342587 0.11063325
-0.012859779 0.024472764 0.111229
-0.012319805 0.024426287 0.11102077
-0.011822124 0.024463272 0.11119094
-0.011567079 0.025028646 0.11376191
-0.011169663 0.025325326 0.11511084
-0.010547772 0.025117291 0.114165
-0.0098417737 0.024676355 0.11215997
-0.0093074935 0.02464075 0.1119968
-0.0088592023 0.024842054 0.11290998
-0.0082783243 0.024673508 0.11214183
-0.0076651913 0.024379741 0.11080434
-0.0071224663 0.024283754 0.11036558
-0.0066755754 0.024524955 0.11145917
-0.0061836182 0.024627222 0.11192123
-0.005677646 0.024687326 0.11219165
-0.0051359418 0.024588505 0.11173991
-0.0046164631 0.024585834 0.11172524
-0.0040094187 0.024057079 0.10932008
-0.0035690551 0.024520107 0.11142197
-0.0030108767 0.02419351 0.10993595
-0.0024956509 0.02414914 0.10973263
-0.0020023494 0.024348587 0.11063749
-0.0015188513 0.024846135 0.11289716
-0.0010030628 0.025061667 0.11387568
-0.00047413007 0.025063317 0.11388268
5.4232842e-05 0.024772907 0.11256298
0.0005749035 0.024678534 0.11213438
0.0011076493 0.024945827 0.11334945
0.0016199877 0.024729362 0.11236677
0.0021222245 0.024501767 0.11133379
0.0026117042 0.024244931 0.11016823
0.0030530775 0.023698837 0.10768851
0.0035586569 0.02373472 0.10785351
0.00418148 0.024447216 0.1110934
0.0046749515 0.024329998 0.11056315
0.0052009015 0.02438828 0.11083055
0.0057538068 0.024551082 0.11157306
0.0062377085 0.024416873 0.11096584
0.0066131838 0.023911117 0.10866997
0.0071124486 0.023892926 0.10858984
0.0076278364 0.023927722 0.10875044
0.008068678 0.02373887 0.10789433
0.0085818134 0.023772364 0.1080485
0.0092065958 0.024094345 0.1095136
0.0097089419 0.024078963 0.1094449
0.010216182 0.024076652 0.10943508
0.010697623 0.024016635 0.10916243
0.011100275 0.023793167 0.10814614
0.01147914 0.023540266 0.10699533
0.012034703 0.023655668 0.10751769
0.012522972 0.02363487 0.10742003
0.012900709 0.02341505 0.10641677
0.013367368 0.023366889 0.1061926
0.013898348 0.023430593 0.10647553
0.014419477 0.023473883 0.10666426
0.014899797 0.023450069 0.10654659
0.015292786 0.023294756 0.10582991
0.015754262 0.023250196 0.10561476
0.016141817 0.023102529 0.10492951
0.016587945 0.023044894 0.10465135
0.017068421 0.023036905 0.10459659
0.017679678 0.023200978 0.10532071
0.018073609 0.023078699 0.10474255
0.018592512 0.023118231 0.10489634
0.018942062 0.022950551 0.10410745
0.019168733 0.02264606 0.10269585
0.019465139 0.022436768 0.10171378
0.019653622 0.022115972 0.10022406
0.020155095 0.022154097 0.10035823
0.020860335 0.022409387 0.10147239
0.021077676 0.022140851 0.10021123
0.021293346 0.021882242 0.098992586
0.021236757 0.02136077 0.096582904
0.021512222 0.021188026 0.09574797
0.022321744 0.021537619 0.097269081
0.022846842 0.021604294 0.097507298
0.02318324 0.02149342 0.09694007
0.023333138 0.021217214 0.095624052
0.023609286 0.021064047 0.094859548
0.024008162 0.021024019 0.09460064
0.024143415 0.020758774 0.093324795
0.0243658 0.020576568 0.092419229
0.024912855 0.020670122 0.092747614
0.025630703 0.02089972 0.093679823
0.025934242 0.020789431 0.093082666
0.025940487 0.020448463 0.091449492
0.025936941 0.020111062 0.089830399
0.025774747 0.019663496 0.087718055
0.026164392 0.019644437 0.0875144
0.027174514 0.020084569 0.089348041
0.029672366 0.021593858 0.095919199
0.030640824 0.02196132 0.097399391
0.03225233 0.022771852 0.10082951
0.033166803 0.023073668 0.10199199
0.033211146 0.022770176 0.10047179
0.033994865 0.022975033 0.10118829
0.033319484 0.022201886 0.097595118
0.03466418 0.022777559 0.099925764
0.034788873 0.022546794 0.098708689
0.039247967 0.02509349 0.10962274
0.037258524 0.023504343 0.10245334
0.035825189 0.02230317 0.096995965
0.033781949 0.02075837 0.090066142
0.034510702 0.020934662 0.090612806
0.029530166 0.017686946 0.076367453
0.034902386 0.020643642 0.088910505
0.036873925 0.021540835 0.092538767
0.039181072 0.022609834 0.09688136
0.042741135 0.024367416 0.10414208
0.044869553 0.025276704 0.10774792
0.045447174 0.025301265 0.10757375
0.044216674 0.024330331 0.10318075
0.045111846 0.024537923 0.10379909
0.047879934 0.025747981 0.10865021
0.049306404 0.026217507 0.11036854
0.049119979 0.025828512 0.10848338
0.049090598 0.025529724 0.10699708
0.048292771 0.024842134 0.10390519
0.045873925 0.023344403 0.097459003
0.044649076 0.022479651 0.093690462
0.046020683 0.022926591 0.095410034
0.051442195 0.025360815 0.10540337
0.057748426 0.028176574 0.11697911
0.058884058 0.02843781 0.11796165
0.059931226 0.028651483 0.11877206
0.061180014 0.028956313 0.11998635
0.056427523 0.026442818 0.10955115
0.059330169 0.027530743 0.11406337
0.057477556 0.026412401 0.10945912
0.052759781 0.024011575 0.099557757
0.039350405 0.017738424 0.073598951
0.043930929 0.019616598 0.081464991
0.084775925 0.037501782 0.15591042
nan nan nan
-0.039612357 0.016679369 0.068953857
-0.043723643 0.018572133 0.076597624
-0.045961175 0.019695474 0.081049062
-0.049983013 0.021610348 0.088741831
-0.048885215 0.021326298 0.087403335
-0.044905819 0.019768538 0.080871843
-0.038885195 0.017275322 0.070554949
-0.042942327 0.01925458 0.078521013
-0.033896312 0.015340686 0.062477428
-0.034909155 0.015948271 0.064878114
-0.039862636 0.018384883 0.074719727
-0.035688188 0.016618026 0.067488633
-0.04232756 0.019901166 0.080778666
-0.045856051 0.021771746 0.088342875
-0.041095387 0.019704835 0.079947814
-0.045686327 0.022125438 0.089779712
-0.045160465 0.022091918 0.089674801
-0.046776019 0.023115965 0.09388537
-0.048972029 0.024450963 0.099386662
-0.051249605 0.025854951 0.1052004
-0.050090753 0.025536615 0.10403295
-0.047980942 0.024721529 0.10085679
-0.047662102 0.024821602 0.10142961
-0.047098603 0.024795054 0.10150374
-0.045662355 0.024303406 0.099686451
-0.045144018 0.024294807 0.099861152
-0.04478398 0.024372162 0.10040271
-0.04256779 0.023429634 0.096745491
-0.041161641 0.022916406 0.094855532
-0.042504814 0.023939701 0.099337846
-0.043237906 0.024639444 0.10250085
-0.042121649 0.024289446 0.10130431
-0.038793575 0.022640169 0.094669461
-0.039127167 0.023113685 0.096898995
-0.039522916 0.023636077 0.099343471
-0.039106429 0.023679717 0.099779949
-0.039484799 0.024211871 0.10227811
-0.039593045 0.024589922 0.10413098
-0.038167451 0.024012798 0.10193232
-0.037957653 0.024195455 0.10294956
-0.037351497 0.024126967 0.10289352
-0.039129455 0.025617465 0.10949332
-0.039720289 0.026361004 0.11291449
-0.040783193 0.027442884 0.117794
-0.038866106 0.026521774 0.11406974
-0.039227735 0.027151519 0.11700511
-0.035997439 0.025277307 0.10913211
-0.034563709 0.02462801 0.10651981
-0.033549059 0.024262376 0.10511927
-0.032320648 0.023728708 0.10297687
-0.031095328 0.023180898 0.10075855
-0.030503534 0.023095615 0.10053954
-0.029701531 0.022845929 0.099596098
-0.028402464 0.022199664 0.096911877
-0.02796706 0.022218309 0.097120389
-0.027416015 0.02214417 0.096917018
-0.026559813 0.021816852 0.095597625
-0.025983697 0.021712268 0.095246404
-0.025418488 0.021613289 0.094913349
-0.025044508 0.02167627 0.095286101
-0.025457084 0.022434723 0.098714411
-0.022697436 0.020373842 0.089727312
-0.024523191 0.02242884 0.098861754
-0.023947431 0.02232429 0.098479874
-0.023702893 0.02253047 0.099464454
-0.023455802 0.022742441 0.10047144
-0.023091983 0.022847587 0.10100311
-0.022738878 0.022967948 0.10159843
-0.022606833 0.023321491 0.10322239
-0.022378735 0.023589188 0.10446397
-0.021692619 0.023375267 0.10356902
-0.021417895 0.023605 0.10463606
-0.020855298 0.023520781 0.10430819
-0.020465866 0.023632498 0.1048459
-0.019961348 0.023613535 0.10480075
-0.019949956 0.024191596 0.10740306
-0.019709254 0.024514163 0.10886937
-0.01928963 0.02462534 0.10939454
-0.018650461 0.024454679 0.10866484
-0.0180561 0.024334894 0.10815833
-0.017619809 0.02442739 0.10859277
-0.017078348 0.024375232 0.10838187
-0.016525326 0.024302907 0.10807902
-0.015968096 0.024219658 0.10772543
-0.015585108 0.024403863 0.10855957
-0.014998863 0.024271471 0.10798358
-0.014609837 0.024460109 0.10883418
-0.014067708 0.024396751 0.10856206
-0.013664089 0.024577824 0.10937621
-0.013215008 0.02468795 0.10987337
-0.012831841 0.024935007 0.11097881
-0.012235484 0.024771132 0.1102542
-0.011682351 0.024684269 0.10987128
-0.011364541 0.025109412 0.11176645
-0.010938128 0.025323808 0.11272278
-0.010361232 0.025193846 0.11214555
-0.0097789718 0.025036398 0.11144528
-0.0091809602 0.024818774 0.11047658
-0.0087198932 0.024967501 0.11113818
-0.0082250368 0.025032103 0.11142488
-0.0076780133 0.024935957 0.11099572
-0.0071429904 0.024867749 0.11069068
-0.0066289161 0.024867551 0.11068818
-0.0061420714 0.024978057 0.11117829
-0.0056044394 0.024883354 0.11075496
-0.0051120855 0.024990857 0.1112316
-0.0046093464 0.02506605 0.11156446
-0.0041083577 0.025171015 0.11202987
-0.0035579791 0.024959939 0.1110888
-0.0030188237 0.024769355 0.1102391
-0.0025006903 0.024708634 0.10996759
-0.0019988921 0.024819573 0.11046026
-0.0014972367 0.025009504 0.11130469
-0.00099341071 0.025344379 0.11279442
-0.00047134352 0.025441902 0.11322806
5.4232529e-05 0.025295628 0.11257698
0.00058352447 0.025577284 0.11383063
0.0011005824 0.025309829 0.11264075
0.0015944513 0.024853263 0.11060949
0.0020852734 0.024583291 0.10940889
0.0025778345 0.024435598 0.10875268
0.0030362674 0.024065794 0.10710812
0.003550329 0.024178958 0.10761321
0.0040698452 0.024296757 0.10813913
0.0045838156 0.024359204 0.10841877
0.0051053157 0.024445346 0.10880395
0.0056680278 0.024695532 0.10991934
0.0062053329 0.024802823 0.11039869
0.0066655353 0.024609074 0.10953802
0.0071788323 0.024624931 0.10961017
0.0077093351 0.024693796 0.10991807
0.0081474856 0.024476666 0.10895268
0.0086439447 0.024449853 0.10883409
0.0091865333 0.024549279 0.10927701
0.0096565867 0.024454599 0.10885543
0.010040125 0.024161149 0.10754848
0.010688216 0.024501977 0.10906424
0.011040291 0.024164066 0.10755806
0.011381934 0.023833571 0.10608409
0.011888213 0.023860935 0.10620212
0.01252405 0.024135796 0.10742065
0.013012515 0.024116471 0.10732869
0.013435457 0.023981616 0.10672138
0.013913714 0.023951583 0.10657924
0.014391464 0.023922764 0.10644112
0.014823929 0.02382309 0.10598623
0.015272103 0.023754256 0.10566697
0.015588736 0.023491489 0.10448344
0.01600991 0.023397371 0.10404838
0.016312215 0.023140147 0.10288624
0.016630322 0.022919355 0.10188438
0.017152242 0.022983909 0.10214891
0.017921114 0.023366975 0.10382619
0.018134268 0.02302436 0.10227654
0.018606178 0.023019401 0.10222458
0.019164477 0.023118902 0.1026336
0.019415772 0.022852223 0.10141436
0.0197921 0.022741878 0.10088648
0.020541802 0.023055723 0.10223681
0.021057032 0.023098132 0.10237951
0.02136616 0.022917595 0.10153084
0.021277361 0.022327326 0.098865017
0.021001698 0.021570198 0.095459856
0.021479536 0.021602355 0.095545731
0.022017609 0.021692554 0.095884115
0.022594085 0.021816229 0.096365817
0.022747375 0.021534447 0.095052816
0.022755921 0.021129081 0.093192287
0.023421543 0.021337595 0.094035536
0.023962557 0.021426981 0.094348125
0.024245653 0.021286678 0.093644775
0.024489736 0.021117736 0.092811853
0.024948407 0.021136513 0.092799529
0.025597779 0.021313425 0.093475416
0.025744546 0.02107295 0.092315756
0.025827402 0.020789031 0.090963006
0.025840359 0.020459065 0.08940658
0.025921918 0.020193169 0.088127919
0.026353484 0.02020403 0.088052958
0.029421289 0.02220411 0.096628934
0.031088047 0.023101626 0.10038164
0.031879086 0.023331083 0.10121723
0.032455485 0.023398953 0.10134279
0.033082101 0.023500504 0.10160597
0.033277288 0.023297079 0.10054433
0.032848865 0.022669099 0.097650103
0.03315635 0.022559494 0.096988089
0.032968681 0.022120697 0.094908893
0.034725115 0.022980483 0.098390944
0.037734713 0.024635196 0.10524692
0.038081415 0.024530509 0.10456534
0.035711817 0.022701837 0.096547693
0.036092918 0.022646524 0.096084997
0.033032358 0.020460809 0.08660157
0.03397309 0.020777486 0.087724961
0.034661368 0.020933796 0.08816316
0.035777856 0.021341674 0.089652427
0.041560322 0.024488995 0.10260985
0.045405004 0.026432496 0.11046787
0.047536742 0.027344447 0.11398501
0.043727234 0.024857556 0.10335354
0.040569961 0.022794893 0.094538249
0.04229356 0.023490511 0.097182482
0.045374643 0.024915749 0.10283133
0.044073831 0.023929846 0.098534085
0.044900503 0.024108125 0.099049501
0.047812566 0.025389893 0.10409929
0.049229059 0.025858261 0.10581522
0.046728015 0.024280926 0.09918531
0.040947016 0.021050885 0.085854709
0.04227484 0.021504998 0.087584823
0.051359951 0.02585469 0.10517528
0.057272106 0.028533971 0.11596169
0.058558408 0.028877441 0.11726946
0.0561064 0.027389076 0.11116679
0.059224397 0.028622357 0.11613758
0.059036929 0.028249552 0.11461636
0.051822115 0.024554355 0.099638708
0.058841221 0.027609736 0.11207821
nan nan nan
0.035503127 0.016341934 0.066428736
0.035688508 0.016272442 0.066211447
0.055656601 0.025140103 0.10241369
-0.035842702 0.015271146 0.062073596
-0.035419434 0.01522215 0.061719187
-0.039690182 0.017207349 0.069600902
-0.044388991 0.019414941 0.078351155
-0.051965266 0.022931788 0.092344448
-0.051653545 0.022999773 0.092431217
-0.044324733 0.019916065 0.079888321
-0.044718523 0.020277519 0.081197962
-0.041629717 0.019051861 0.076170743
-0.037977241 0.017542891 0.070039995
-0.039707374 0.018515304 0.073832445
-0.042297494 0.019911084 0.079316594
-0.041889299 0.019908726 0.079240993
-0.042473938 0.020382771 0.081076495
-0.048229497 0.023371942 0.092927173
-0.049749509 0.024347482 0.096785851
-0.049102452 0.024271367 0.096484415
-0.046330065 0.023132538 0.091978922
-0.046502948 0.023456039 0.093308009
-0.048212301 0.024569206 0.097802848
-0.0523903 0.02697674 0.10748343
-0.049159534 0.025579909 0.1020318
-0.043924723 0.023099419 0.092259616
-0.043863114 0.023315329 0.093263365
-0.043665878 0.023463059 0.094013952
-0.044413406 0.024127282 0.096856095
-0.04343842 0.023860123 0.09597709
-0.043919083 0.02439552 0.098342009
-0.041637473 0.023391295 0.094507635
-0.03997089 0.022713447 0.091985725
-0.037808415 0.021734744 0.088236757
-0.041573428 0.024180626 0.098411314
-0.041360524 0.024343541 0.099325486
-0.040775973 0.024289001 0.09935645
-0.037886444 0.022843366 0.093682654
-0.037441123 0.022853922 0.093965776
-0.035337199 0.021839662 0.090023659
-0.037164271 0.023259988 0.096119009
-0.03913258 0.024806309 0.1027624
-0.03738239 0.024005024 0.099684171
-0.036865085 0.023984749 0.099836238
-0.03677813 0.024247659 0.10116411
-0.038804207 0.025929648 0.10842505
-0.040203642 0.027233306 0.11412507
-0.039958626 0.027443819 0.11525058
-0.040021267 0.027874544 0.11729882
-0.040508263 0.028617384 0.12066242
-0.037614286 0.026958607 0.11388449
-0.03588726 0.026099652 0.11045758
-0.035374384 0.02611123 0.11070074
-0.033168986 0.024854884 0.10555197
-0.031836089 0.024223691 0.1030376
-0.030526796 0.023590984 0.10050139
-0.029490242 0.023152282 0.098778121
-0.028798282 0.022974309 0.098157041
-0.027788408 0.022532705 0.096399762
-0.027751839 0.022878753 0.0980056
-0.02724861 0.0228453 0.09798158
-0.025427176 0.021686422 0.093118988
-0.025797127 0.022388646 0.096239999
-0.025296165 0.022346638 0.096159577
-0.024577264 0.022107061 0.095222645
-0.024415573 0.0223691 0.096441373
-0.023806944 0.022223834 0.095899679
-0.022403872 0.021317055 0.092063427
-0.023194006 0.022502465 0.097259246
-0.023248967 0.02300784 0.099517055
-0.022789208 0.023014091 0.099613227
-0.022376498 0.023069104 0.099916428
-0.022305449 0.023486214 0.10178512
-0.02202972 0.023701284 0.10277586
-0.02173087 0.023900513 0.10369503
-0.021351596 0.024018342 0.10425805
-0.021093111 0.02428071 0.10544564
-0.020447494 0.024099333 0.10470287
-0.020067027 0.024229232 0.10530907
-0.019838396 0.024553567 0.10675794
-0.019511065 0.024769275 0.10773228
-0.019243553 0.025074316 0.10909297
-0.018485794 0.024739785 0.10766819
-0.017902602 0.024626749 0.10720418
-0.017532514 0.024808785 0.1080222
-0.017132964 0.024958637 0.10869808
-0.016504027 0.024773281 0.10791182
-0.015844669 0.024529209 0.10686732
-0.015525768 0.024813456 0.10812263
-0.015265587 0.025213711 0.10988203
-0.014702875 0.02512469 0.10950755
-0.014335017 0.0253742 0.11060704
-0.013804955 0.025344471 0.11048789
-0.013301273 0.025362745 0.11057658
-0.012799419 0.025386114 0.11068621
-0.012256001 0.02532555 0.11042865
-0.011618652 0.025057126 0.10926358
-0.011201893 0.025261635 0.11015978
-0.010686298 0.025252171 0.11012205
-0.01014504 0.025178064 0.10980158
-0.0096944096 0.025332933 0.11047899
-0.0090784254 0.025048872 0.10924158
-0.0085967127 0.025123592 0.10956825
-0.0082232477 0.025543964 0.11140195
-0.007779358 0.025787329 0.11246331
-0.0072410516 0.025730219 0.11221389
-0.0066234013 0.025360456 0.11060069
-0.0060607009 0.02515661 0.10971086
-0.0056190169 0.02546376 0.11104944
-0.0051125372 0.02550968 0.11124863
-0.0046545137 0.025834871 0.11266571
-0.004152521 0.025967475 0.11324287
-0.0035621061 0.025505418 0.11122681
-0.0030370089 0.025433635 0.1109128
-0.0025183188 0.02539715 0.11075281
-0.0020138125 0.025521692 0.11129516
-0.0014954379 0.025495788 0.11118161
-0.00099153665 0.025819454 0.11259262
-0.00046937066 0.025859101 0.11276523
5.5545333e-05 0.026443483 0.11531351
0.00058944587 0.026370889 0.11499705
0.0010548171 0.024758782 0.10796734
0.0015638705 0.02488046 0.1084984
0.0020761867 0.024982097 0.10894225
0.0025772112 0.024934655 0.10873612
0.0031409087 0.025409786 0.11080898
0.0036221535 0.025178002 0.10979919
0.0040926882 0.024938168 0.10875434
0.0045816936 0.024851207 0.10837617
0.0050884578 0.024868248 0.10845155
0.0056358613 0.025062947 0.10930166
0.0061690863 0.025167629 0.10975911
0.0067046992 0.025265334 0.11018598
0.0072508072 0.025385924 0.11071245
0.0077762241 0.025422908 0.11087403
0.0083020935 0.02545668 0.11102127
0.0087381564 0.025227232 0.11002011
0.0091482019 0.024952168 0.10881958
0.0095309792 0.024635417 0.10743672
0.01008605 0.024773367 0.10803621
0.010554934 0.024696583 0.10769854
0.010983688 0.024537096 0.10699944
0.011316164 0.024185644 0.10546244
0.011791464 0.024155945 0.10532755
0.012413648 0.024417529 0.10646161
0.012955083 0.024506321 0.10684104
0.013488757 0.024574427 0.10712895
0.013974236 0.024553003 0.10702514
0.014403896 0.024438348 0.10651349
0.014782476 0.024247522 0.10566842
0.015138443 0.024033068 0.1047189
0.015558386 0.023930378 0.10425475
0.015759548 0.023507548 0.10239434
0.016117191 0.023336083 0.1016273
0.016550751 0.023281176 0.10136592
0.017129058 0.02342728 0.10197737
0.017699396 0.023554904 0.10250571
0.018154699 0.023526754 0.10235348
0.018664407 0.023568746 0.10250369
0.01911887 0.023540622 0.10234615
0.019410493 0.02331824 0.10134149
0.019614916 0.023004161 0.09993612
0.020488866 0.023471642 0.10192256
0.021088665 0.023610992 0.10247958
0.021356255 0.023380464 0.10142785
0.02141249 0.022933565 0.099435329
0.021362001 0.022393767 0.097038656
0.021533426 0.022104202 0.09572465
0.022053849 0.022177387 0.0959782
0.02249084 0.022165427 0.095858991
0.022516359 0.021756347 0.094019458
0.022722298 0.02153396 0.092984483
0.023175089 0.02154948 0.092973083
0.023710787 0.0216401 0.093280703
0.024073001 0.021571964 0.092899181
0.024267072 0.02135827 0.091887109
0.024419012 0.021115633 0.090747535
0.025077755 0.021312043 0.091489919
0.025731334 0.021497494 0.092178121
0.025255255 0.020748693 0.088857941
0.025679255 0.020751769 0.088756241
0.026377233 0.020972587 0.089579038
0.027258193 0.021329587 0.090974331
0.029446257 0.022682309 0.096599884
0.031015772 0.023524322 0.10002985
0.031478874 0.023514386 0.099824928
0.031410288 0.023113498 0.097956501
0.031522788 0.02285568 0.096692525
0.032307334 0.023085542 0.097485185
0.03379852 0.023806578 0.10033767
0.03587671 0.024914989 0.10480089
0.034160946 0.023394434 0.098202646
0.035434265 0.023934498 0.10025611
0.03871711 0.025799027 0.10782915
0.038302552 0.025182953 0.10501644
0.037549295 0.024363309 0.10136264
0.037012331 0.023703443 0.098382778
0.039075591 0.024704395 0.10228816
0.036447521 0.022751575 0.093969427
0.033818871 0.020847155 0.085887492
0.037857022 0.02304868 0.094716422
0.04136676 0.024878779 0.10197586
0.046147883 0.027420269 0.11210566
0.048487872 0.028468087 0.11609303
0.043515809 0.025248691 0.10270467
0.040739868 0.023363508 0.094800673
0.041204166 0.023358492 0.094551109
0.042743504 0.023956107 0.096743368
0.041817922 0.023174321 0.093376569
0.04150214 0.022744069 0.091448456
0.047381293 0.025680954 0.10305186
0.057730138 0.030950369 0.12396929
0.051752817 0.02744779 0.10975731
0.037910424 0.019892631 0.079428546
0.039933715 0.020733977 0.082682043
0.048077263 0.024702443 0.09840177
0.052179474 0.026534092 0.10560764
0.052510157 0.026430065 0.10512673
0.05146791 0.02564407 0.10195835
0.044630174 0.022015 0.08751303
0.049740404 0.024293078 0.096572004
0.052457634 0.025369244 0.10087556
0.051358547 0.024596808 0.097849831
0.053731777 0.025486214 0.10145649
0.038557362 0.018114636 0.072174653
0.041642092 0.019379487 0.077296853
0.057580318 0.026546661 0.10601669
nan nan nan
-0.036812447 0.016141221 0.064215571
-0.037346091 0.016518982 0.065558165
-0.040823653 0.01821713 0.072129443
-0.048653521 0.021905154 0.086540915
-0.05020348 0.022806808 0.089916378
-0.046724495 0.021419495 0.084283598
-0.04489927 0.020771788 0.081588902
-0.046929047 0.021912048 0.085927263
-0.043106381 0.020315461 0.079549417
-0.043455653 0.020673465 0.080846436
-0.0466998 0.022428624 0.087612547
-0.044139385 0.021402964 0.08352875
-0.041899402 0.020514257 0.080002189
-0.047870196 0.023667617 0.092251487
-0.049094021 0.024513265 0.095517799
-0.046819281 0.023611477 0.091995001
-0.044709083 0.022775266 0.088747822
-0.044443935 0.022871466 0.089153327
-0.046258722 0.024051057 0.093804404
-0.048164979 0.025303308 0.098765917
-0.044279393 0.023507161 0.091846801
-0.042502791 0.022804301 0.089208268
-0.04118352 0.022334322 0.087492734
-0.043716189 0.023965806 0.094033681
-0.041474186 0.02298685 0.090352148
-0.040627465 0.022768041 0.089664578
-0.041853596 0.023719028 0.093602948
-0.041749492 0.023929209 0.094639346
-0.037247356 0.021594442 0.085601471
-0.037191637 0.021813162 0.086674392
-0.040138047 0.023818545 0.094874412
-0.043734133 0.026261864 0.10486781
-0.041816432 0.025413215 0.10173558
-0.041337717 0.025429042 0.10205789
-0.036181856 0.02253253 0.090663098
-0.03817264 0.024069846 0.097094096
-0.039567936 0.025265887 0.10217463
-0.039994415 0.025866061 0.10486086
-0.038309179 0.025098354 0.10199641
-0.036414411 0.024171328 0.098463587
-0.037283421 0.025078597 0.10239769
-0.039595097 0.026993955 0.1104687
-0.03999386 0.027639845 0.11336182
-0.038883783 0.027246442 0.11198774
-0.038070086 0.027052544 0.11142141
-0.041645005 0.030016256 0.12387584
-0.039772615 0.02908279 0.12025549
-0.037724342 0.027991321 0.11595781
-0.037016146 0.027876416 0.11568855
-0.035970174 0.027499786 0.11432179
-0.034570027 0.026836608 0.11174882
-0.030748442 0.024243494 0.10111049
-0.029780908 0.023853969 0.099636301
-0.029241752 0.023800524 0.099556707
-0.027725942 0.02293735 0.096078411
-0.027520826 0.023147779 0.097087376
-0.027417475 0.023452397 0.098488264
-0.026427237 0.022995815 0.096685976
-0.024505623 0.021698492 0.091334753
-0.024666099 0.02223132 0.093678266
-0.024463454 0.02245032 0.094697617
-0.024387907 0.022796251 0.096249752
-0.024218552 0.023065915 0.097477414
-0.023332192 0.022649938 0.095802233
-0.022634897 0.022404755 0.094842523
-0.023207627 0.023432048 0.099267498
-0.022860613 0.023553731 0.099855289
-0.022145791 0.023293626 0.098819837
-0.021917259 0.023544829 0.099949419
-0.022026651 0.024177903 0.10269837
-0.021658704 0.024303555 0.10329
-0.021333667 0.024484172 0.10411217
-0.02095413 0.024609212 0.10469505
-0.020596173 0.024766162 0.10541072
-0.020049598 0.024698444 0.10516697
-0.019692853 0.024867032 0.10592636
-0.019372873 0.025091907 0.10692309
-0.01869764 0.024856379 0.10595495
-0.017987145 0.024559941 0.10472362
-0.017649153 0.024769777 0.10564829
-0.017442549 0.025181321 0.1074315
-0.017056316 0.025350172 0.10817751
-0.016388871 0.025098627 0.1071272
-0.015866971 0.025061188 0.10698831
-0.015509619 0.025289638 0.10798267
-0.015368024 0.025896946 0.11059336
-0.014899689 0.025976641 0.1109495
-0.014232231 0.025702443 0.10979228
-0.013873961 0.02598699 0.11102026
-0.013346333 0.02596404 0.1109332
-0.012828132 0.025958326 0.1109184
-0.012245125 0.025815502 0.11031643
-0.011705845 0.025756421 0.11007107
-0.011048312 0.02541987 0.10863879
-0.010607401 0.025573358 0.10929982
-0.010076498 0.025514401 0.10905204
-0.0094156908 0.025102884 0.10729652
-0.0089251539 0.025124688 0.10739241
-0.0085194325 0.025401963 0.1085797
-0.0082590068 0.026174599 0.11188395
-0.007796437 0.026367325 0.11270893
-0.0072556012 0.026304048 0.11243922
-0.0066624358 0.026026532 0.11125336
-0.0060773976 0.025736781 0.11001492
-0.0055750888 0.025776343 0.11018395
-0.0052270903 0.026609443 0.11374488
-0.0046900581 0.026559357 0.11353041
-0.0041170106 0.026266804 0.11227943
-0.0035605563 0.026010621 0.11118387
-0.0030379072 0.025956383 0.11095155
-0.0025511761 0.026249561 0.11220429
-0.0019803089 0.025605345 0.10945017
-0.0015067303 0.026208544 0.1120282
-0.00097645802 0.025941744 0.11088753
-0.00046446861 0.026107252 0.11159485
5.4341544e-05 0.026394313 0.11282183
0.00057780789 0.026373733 0.11273392
0.0010786082 0.025829922 0.1104096
0.0015692668 0.025471922 0.10887959
0.0020853628 0.025600674 0.10943028
0.0026231923 0.025893506 0.11068241
0.003123888 0.025783889 0.11021432
0.0036605792 0.02596041 0.11096933
0.0041322601 0.025689213 0.10981058
0.0045756041 0.025320785 0.10823611
0.0051005105 0.025431965 0.1087117
0.005649352 0.025631718 0.10956578
0.00621772 0.025879743 0.11062601
0.0066900277 0.025720591 0.10994553
0.0071449699 0.025521979 0.10909607
0.0077203433 0.025751369 0.11007579
0.0082507087 0.025811465 0.11033144
0.0086927898 0.025604498 0.10944504
0.0091413856 0.025438521 0.10873334
0.0095469039 0.02517632 0.10760976
0.0099993851 0.025057891 0.10710005
0.010443151 0.024929881 0.10654867
0.010931485 0.024915034 0.10648008
0.011366011 0.024784137 0.10591463
0.011768102 0.024596313 0.10510495
0.012289393 0.024662666 0.10538032
0.012914952 0.024925165 0.10649246
0.01350006 0.02509311 0.1071991
0.013990995 0.025080284 0.10713195
0.014311247 0.024772886 0.10580512
0.014684095 0.024573931 0.10494009
0.01508321 0.024430314 0.10430983
0.015441341 0.024231333 0.10344157
0.015640918 0.023803081 0.1015931
0.016100243 0.023783637 0.10148779
0.016725088 0.024002854 0.10239847
0.017298164 0.024137691 0.10294647
0.017828079 0.024206657 0.10321082
0.018206278 0.024071405 0.10260195
0.018678021 0.024063591 0.10253368
0.019008009 0.023878094 0.10170575
0.019307047 0.023663688 0.10075237
0.019571222 0.023417749 0.099662408
0.02014575 0.023545958 0.10016176
0.020967139 0.023950335 0.1018314
0.021239664 0.023723731 0.10081432
0.021423873 0.023410447 0.099426471
0.021576528 0.023076717 0.097949564
0.021641426 0.022664955 0.096139535
0.021962717 0.022533016 0.095513999
0.022449542 0.022572787 0.095612451
0.022613021 0.02229224 0.094350621
0.022788841 0.022034397 0.093182363
0.023044264 0.02186178 0.092371553
0.023476671 0.021860348 0.09228012
0.02369214 0.02166063 0.091347717
0.023931656 0.02148962 0.090533115
0.024354473 0.02148632 0.090420857
0.024714746 0.021428898 0.090076037
0.024789555 0.0211301 0.088713184
0.024368854 0.020425908 0.085648283
0.023952689 0.019748509 0.082698002
0.026447682 0.021454465 0.089716822
0.028279779 0.022577129 0.094274007
0.029948058 0.023536025 0.098128304
0.031677682 0.02451293 0.10203862
0.030659031 0.023365779 0.097101882
0.030126693 0.022617914 0.093831241
0.030070491 0.022244228 0.092114702
0.030904211 0.022530142 0.093123928
0.036791995 0.026439907 0.10907172
0.038064864 0.026969921 0.11103401
0.036653236 0.02560957 0.10521377
0.034536216 0.023800327 0.097570285
0.037587408 0.02555348 0.10452507
0.038697965 0.025958184 0.1059384
0.037137419 0.024584055 0.10009577
0.037612285 0.024575483 0.09982153
0.039558705 0.02551632 0.10339024
0.036357168 0.023154786 0.093588911
0.035616279 0.022399766 0.09030997
0.034066767 0.021161079 0.08510001
0.040828951 0.025052615 0.10049407
0.042639896 0.025848975 0.10342565
0.04525144 0.027105965 0.10818213
0.045898441 0.027170463 0.10817045
0.042860281 0.025077298 0.099594638
0.041165046 0.023808915 0.094334148
0.043704059 0.024990516 0.098791003
0.042171303 0.023843437 0.094052576
0.040441006 0.022611372 0.089010939
0.043184429 0.023880243 0.093828052
nan nan nan
0.045655344 0.024704283 0.0967471
0.039440054 0.021114383 0.082575403
0.040821113 0.02162395 0.084469773
0.04102302 0.021504786 0.083924063
0.038947776 0.020206658 0.078799732
0.043750256 0.022466881 0.087568417
0.047876701 0.024337836 0.094832517
0.049240302 0.024780964 0.096551746
0.05159637 0.025709856 0.10018515
0.050552484 0.024942998 0.097231545
0.055614106 0.027174294 0.10598947
nan nan nan
0.046232022 0.022160139 0.08658246
nan nan nan
0.08314392 0.039108723 0.15318288
-0.036296695 0.016090941 0.063001916
-0.04202202 0.018791212 0.073384814
-0.038101312 0.01718756 0.066955842
-0.038689975 0.0176077 0.068430156
-0.042572439 0.019547746 0.075798981
-0.049403921 0.022889076 0.088566944
-0.049496233 0.023140511 0.089361645
-0.050111514 0.023643313 0.091134578
-0.0477175 0.022722444 0.087436341
-0.046450242 0.022325912 0.085778244
-0.04900638 0.02377693 0.091227829
-0.046969801 0.02300607 0.088164575
-0.040006492 0.019784011 0.075740121
-0.03545513 0.017703667 0.067720182
-0.044962704 0.022671374 0.086668745
-0.047818664 0.024350401 0.093048595
-0.04477077 0.023026561 0.087971814
-0.045181621 0.02347284 0.089677699
-0.046346478 0.024323964 0.092950627
-0.047600362 0.025239864 0.096493788
-0.04414406 0.023651265 0.0904807
-0.041338496 0.022381505 0.085698552
-0.039240889 0.021472089 0.082306117
-0.042727366 0.023631521 0.090700723
-0.042681213 0.023862869 0.091724657
-0.040807199 0.023066118 0.088809639
-0.037526131 0.021447461 0.082728505
-0.038836841 0.022446267 0.08675243
nan nan nan
-0.038997062 0.023057623 0.089501753
-0.037403069 0.022372616 0.08704403
-0.04134148 0.025019649 0.097575724
-0.044701107 0.027375333 0.10702457
-0.048053816 0.029783564 0.11672986
-0.042007159 0.026353784 0.10354761
-0.042040799 0.026700923 0.10517664
-0.040876709 0.026286528 0.10380549
-0.044370808 0.028895129 0.11439286
-0.042803247 0.028232144 0.1120453
-0.039060704 0.026098683 0.10383128
-0.037490621 0.025379671 0.10121302
-0.038485628 0.026401106 0.10553375
-0.041718107 0.029005866 0.11621165
-0.040166825 0.028310394 0.11367846
-0.035647623 0.025474636 0.10251349
-0.038269468 0.027734021 0.11184015
-0.038330466 0.028175645 0.11385214
-0.040020265 0.029844755 0.12083357
-0.039074898 0.029568939 0.1199436
-0.037629075 0.028900502 0.11744595
-0.036788981 0.028684065 0.11677079
-0.034059417 0.026965052 0.10995762
-0.031389657 0.025240317 0.10309069
-0.029891705 0.024417968 0.099886179
-0.029261027 0.024288956 0.099505432
-0.028760839 0.024265803 0.099551164
-0.027825182 0.023868328 0.098052703
-0.027364286 0.023871521 0.098192066
-0.025790351 0.022887081 0.094258174
-0.024691831 0.022297349 0.091936596
-0.023920501 0.021987265 0.090758644
-0.024494164 0.022924693 0.094727844
-0.024750404 0.023594311 0.097592235
-0.024215089 0.023520403 0.097378679
-0.024046151 0.023806371 0.09865097
-0.023780597 0.024006041 0.099562697
-0.022648605 0.023321535 0.096801169
-0.023367146 0.024553515 0.10199168
-0.022561241 0.024201654 0.10060158
-0.02205909 0.024167573 0.10052708
-0.021991512 0.024618492 0.10246704
-0.021673841 0.024803296 0.10329707
-0.021125805 0.024726883 0.10303567
-0.020727206 0.024825897 0.10350164
-0.020317191 0.024915639 0.10392586
-0.019941945 0.025053449 0.1045476
-0.019889805 0.025614269 0.10693257
-0.019355144 0.025566554 0.10677477
-0.01862184 0.025247004 0.10547815
-0.01797051 0.025024284 0.1045824
-0.017589459 0.025176007 0.10524879
-0.017627867 0.025954012 0.10853188
-0.017080454 0.025889952 0.10829206
-0.016533084 0.025822064 0.10803372
-0.01625092 0.026177112 0.10954291
-0.015855523 0.026366845 0.11035864
-0.015160674 0.026054651 0.10907146
-0.014606768 0.025971441 0.10874071
-0.01413095 0.026026092 0.10898538
-0.013757731 0.026280792 0.11006633
-0.013400911 0.0265877 0.11136468
-0.012842792 0.026503842 0.11102494
-0.012251631 0.026341921 0.11035674
-0.0115735 0.025970697 0.10881028
-0.011043332 0.02591276 0.10857517
-0.010482932 0.025774941 0.10800429
-0.0099855689 0.025786046 0.10805648
-0.0093733855 0.025486136 0.10680447
-0.0089214379 0.025612736 0.10733906
-0.0085652294 0.026045447 0.10915592
-0.0081543447 0.026355872 0.11045976
-0.0076767872 0.026478022 0.11097404
-0.007203802 0.026634654 0.11163239
-0.0066575482 0.026523679 0.1111687
-0.0061644712 0.026623705 0.11158908
-0.0056415824 0.026601529 0.11149692
-0.0051482529 0.026728328 0.11202896
-0.0046403338 0.026799379 0.11232713
-0.0040827589 0.026565323 0.11134632
-0.0035618141 0.026536291 0.11122474
