# .PCD v0.7 - Point Cloud Data file format
VERSION 0.7
FIELDS x y z
SIZE 4 4 4
TYPE F F F
COUNT 1 1 1
WIDTH 153
HEIGHT 1
VIEWPOINT 0 0 0 1 0 0 0
POINTS 153
DATA ascii
0.0097080106 -0.018868083 0.074240334
0.014604781 -0.014210548 0.073678508
0.016890645 -0.01225556 0.072252303
0.018178567 -0.0076741111 0.072552085
0.018756147 -0.0026627281 0.072574817
0.020583205 -0.0027314133 0.071095869
0.01880886 0.0025489805 0.072381422
0.020383388 0.0023033058 0.0711013
0.01443742 0.0096746506 0.074725568
0.017443314 0.0073742154 0.072485961
0.013613773 0.013349696 0.072962105
0.016443953 0.012625083 0.071670182
-0.0085420012 0.01942005 0.074230798
0.0038301814 0.019912826 0.074231386
0.0083531113 0.018675489 0.073743291
0.012147274 0.01721395 0.072510287
-0.0089944908 -0.018169804 0.079368241
-0.0023054946 -0.019069722 0.079560168
0.0031718116 -0.019026203 0.079449616
0.0079774512 -0.018168354 0.078317866
0.011786099 -0.017113023 0.076899983
-0.014208793 -0.013271799 0.079488046
0.0091387955 -0.014457823 0.079548404
0.013272674 -0.012767431 0.077801183
0.015509279 -0.011855043 0.076392345
-0.018792255 -0.0078392997 0.079059482
0.014216884 -0.0081268437 0.078949824
0.016335284 -0.0073543135 0.077496044
-0.019124052 -0.00327039 0.079282857
0.014650932 -0.0018729713 0.079644665
0.016782144 -0.0023960015 0.077523515
0.020101046 -0.0016267116 0.075758293
-0.019331178 0.0026148509 0.079016514
0.014038643 0.003794597 0.078961179
0.016813049 0.0024545779 0.077409983
-0.018607171 0.0086926688 0.078931078
0.0084209153 0.0092670675 0.079870775
0.013443645 0.0086443899 0.078193076
0.016280493 0.0070774178 0.076821417
-0.017457224 0.01259724 0.077827729
-0.012412605 0.013758766 0.079213381
-0.0083513893 0.014635666 0.079646714
0.0086059412 0.013531839 0.078898996
0.012019109 0.012278826 0.077230394
0.015398886 0.011129446 0.075175792
-0.012453324 0.01740513 0.077321373
-0.0076574045 0.018215351 0.078005388
-0.0023435657 0.018570613 0.078450099
0.0026775955 0.01831951 0.078142636
0.0072814357 0.017252091 0.077304348
0.010816983 0.015954481 0.076433808
-0.0027599682 0.02173363 0.076668911
0.0023333789 0.021516541 0.076186322
-0.0028876888 -0.021518458 0.080778807
0.0022479936 -0.020954408 0.080794565
0.0055467645 -0.020863961 0.080354035
-0.012198175 -0.016347902 0.080989055
-0.0073590972 -0.017516514 0.081659012
-0.0026063423 -0.017457489 0.08223293
0.0023718942 -0.017436305 0.082121931
0.0069542257 -0.016557826 0.081325591
0.011047158 -0.015532258 0.080363132
-0.016733898 -0.011846565 0.081116185
-0.012421638 -0.012401739 0.081985518
-0.007556675 -0.012598287 0.0833859
-0.0028630449 -0.012599068 0.083935738
0.0026084611 -0.013306144 0.083996907
0.0075821499 -0.012575156 0.082938299
0.01143466 -0.011964594 0.081499726
-0.017177427 -0.0073845857 0.081774913
-0.012580786 -0.0076473439 0.083127759
-0.007727501 -0.0076872492 0.083384916
-0.0023599584 -0.0073969937 0.084356047
0.0015662299 -0.0071008611 0.084558256
0.0082934396 -0.0077085667 0.083831869
0.012107032 -0.0073630633 0.081863418
0.015806375 -0.0064864336 0.080453403
-0.020641331 -0.0022659178 0.080890626
-0.017370058 -0.002501539 0.082157485
-0.012603463 -0.0023820924 0.083659537
-0.008043549 -0.0028841258 0.083906785
-0.0027048939 -0.0038982045 0.084268756
0.0026680867 -0.0022303693 0.084361054
0.0082074376 -0.0025481049 0.084023364
0.012555578 -0.0025723218 0.082397237
0.015417245 -0.0026123028 0.080980167
-0.020943562 0.0031654772 0.080440953
-0.017449586 0.0024584888 0.082473092
-0.012751572 0.0023579269 0.084069468
-0.0072059184 0.0023463392 0.084375896
-0.0030203131 0.0012823187 0.084304735
0.0027162528 0.00241043 0.084632955
0.0078639919 0.0027441119 0.083922684
0.012355863 0.0023428595 0.082413003
0.01554628 0.0020719601 0.081098236
-0.017122798 0.0071363878 0.081750907
-0.012757579 0.0077547496 0.083637796
-0.0074914116 0.0085252589 0.084038138
-0.0024197085 0.0079319878 0.084535278
0.0028499977 0.0082290359 0.084338054
0.0077030975 0.0076506487 0.083317548
0.012121974 0.0071776221 0.081585772
0.015285242 0.0063670403 0.081168562
-0.016622173 0.01176877 0.080722272
-0.012474821 0.01221363 0.081826903
-0.0076702074 0.012672377 0.082865462
-0.0026161694 0.013076724 0.083301589
0.0026043123 0.012757101 0.08349774
0.0070082569 0.01215726 0.081935041
0.010503546 0.010956796 0.081960127
-0.012356598 0.015559618 0.080377042
-0.0071174982 0.016593434 0.081225187
-0.0026355423 0.016789369 0.081437759
0.0019939446 0.016344532 0.081502192
0.006390674 0.015999842 0.080624931
0.0017141355 0.020619493 0.080159426
-0.0022717274 -0.015788576 0.085653014
0.0025018416 -0.015410963 0.085728519
-0.011048442 -0.010147394 0.085051075
-0.007746581 -0.012475651 0.085365862
-0.0018471938 -0.012308192 0.085877903
0.0022838118 -0.011715683 0.085955568
0.006158689 -0.010924018 0.086401679
-0.012411963 -0.0063512227 0.085941166
-0.0065454161 -0.0075174985 0.086014427
-0.0027154731 -0.0076485556 0.085766405
0.0026879376 -0.0075812615 0.086428173
0.0068853921 -0.007311794 0.085942507
-0.016122844 -0.00084575766 0.085781947
-0.01267051 -0.0028909112 0.08580111
-0.0068796156 -0.0021682915 0.086456336
-0.0026024068 -0.0020754454 0.086564489
0.0024528888 -0.0025520322 0.086046308
0.0067267423 -0.0024793644 0.085626081
0.0105025 -0.0017422246 0.08520709
-0.015424279 0.0017723104 0.085666463
-0.012149145 0.0028269263 0.085517369
-0.0077419174 0.0024402 0.085990071
-0.0025481135 0.0027406891 0.086860068
0.0024707147 0.0024666057 0.086256616
0.0070130411 0.0020561561 0.08557979
-0.015215473 0.0062919687 0.085200727
-0.01164628 0.0067738206 0.086119063
-0.0075015659 0.0070919772 0.086146846
-0.002552548 0.007438092 0.08630757
0.0022916703 0.0073752166 0.086268999
0.0064681224 0.0071001989 0.085580193
0.010038394 0.0053498647 0.085549489
-0.010262852 0.010057766 0.085054994
-0.0066037863 0.010994653 0.085765012
-0.0023493392 0.011086742 0.085501321
0.0016823373 0.011753022 0.085378483
0.0058864318 0.010246975 0.08530689
