# .PCD v0.7 - Point Cloud Data file format
VERSION 0.7
FIELDS x y z
SIZE 4 4 4
TYPE F F F
COUNT 1 1 1
WIDTH 1290
HEIGHT 1
VIEWPOINT 0 0 0 1 0 0 0
POINTS 1290
DATA ascii
0.017300058 0.0075321011 0.075866677
0.017645737 0.007529269 0.075831965
0.017654082 0.0073854267 0.074374542
0.017814701 0.0073095863 0.07359942
0.018135633 0.0073011415 0.073500149
0.018415846 0.0072769183 0.07323911
0.018303322 0.0071012052 0.071450807
0.018570632 0.0070764916 0.071179241
-0.020213962 0.0079506766 0.076365232
-0.01953128 0.0082630822 0.079463303
-0.018890776 0.0081461063 0.078354098
-0.018465949 0.0081193652 0.078109495
-0.018522263 0.0083073461 0.079927839
-0.018746989 0.008580097 0.082559392
-0.018252073 0.0085279942 0.08206258
-0.017860975 0.0085232118 0.082018435
-0.017381663 0.0084752087 0.081555881
-0.016562989 0.0082559083 0.079442695
-0.016343253 0.0083319619 0.080169417
-0.016116172 0.0084077306 0.080891252
-0.016062189 0.0085795745 0.082535207
-0.015874278 0.0086865379 0.083552845
-0.015374498 0.0086239269 0.082937621
-0.015250065 0.0087740505 0.084366515
-0.014571672 0.0086049689 0.082724653
-0.014108297 0.008557138 0.082247488
-0.013522065 0.0084300488 0.081007689
-0.013239114 0.0084901676 0.081565872
-0.013150651 0.0086822389 0.083390176
-0.013023538 0.0088596931 0.085072272
-0.012822684 0.008996537 0.086362831
-0.012209139 0.0088433204 0.084868304
-0.01156158 0.0086543923 0.083031446
-0.011171204 0.008651563 0.082980141
-0.011060738 0.008873078 0.085079648
-0.010718065 0.0089178616 0.085483596
-0.010536439 0.0091052735 0.087253951
-0.010141097 0.0091156373 0.08732713
-0.0095976181 0.0089881364 0.086080007
-0.0092303017 0.0090216817 0.086375691
-0.0088061132 0.0090001645 0.086144477
-0.0085628005 0.0091702975 0.087747611
-0.0082229795 0.0092489803 0.088475503
-0.0077476245 0.0091754803 0.087748207
-0.007300857 0.0091295121 0.087285213
-0.0068579987 0.0090832813 0.086820669
-0.0064345864 0.0090586133 0.086563267
-0.0059770332 0.0089793392 0.085785195
-0.005565655 0.0089630177 0.085609756
-0.0051980792 0.0090201758 0.086137116
-0.0048198826 0.0090669617 0.086566359
-0.0044976203 0.0092372159 0.088175185
-0.0039970209 0.0090385973 0.086264156
-0.003593666 0.0090399459 0.086263239
-0.003220544 0.0091273207 0.087084435
-0.0028608001 0.0092834458 0.08856269
-0.0024560087 0.0093215564 0.088916302
-0.0020343559 0.0092981663 0.088684775
-0.0016191425 0.009299756 0.08869303
-0.001191708 0.0092080152 0.087812789
-0.00076793414 0.0090627149 0.086423434
-0.00036560171 0.0091285491 0.087049052
4.2557869e-05 0.0091822064 0.087560102
0.00044740058 0.0090713827 0.086504236
0.00084468903 0.0089855576 0.085688271
0.0012672398 0.0091371872 0.087138303
0.0016896975 0.0092144115 0.087880388
0.0021088584 0.0092469156 0.088197567
0.002500366 0.0091673825 0.087447591
0.0028371892 0.0089379689 0.085269049
0.0032204939 0.0088935355 0.084856316
0.0036367248 0.0089398017 0.085310347
0.004007916 0.0088771535 0.084726311
0.0044205319 0.0089092767 0.08504802
0.0048135761 0.0088999048 0.08497487
0.0052514467 0.0089685209 0.085647583
0.0058370405 0.0092618009 0.088467665
0.0061969254 0.0091818189 0.087723896
0.0063849087 0.0088728862 0.084792785
0.0066905124 0.0087539731 0.083677493
0.00706224 0.0087299366 0.083469532
0.0074726478 0.0087537272 0.083719566
0.0078549301 0.0087438421 0.083648235
0.0081428206 0.0086348001 0.082628518
0.0083135767 0.0084170327 0.080567934
0.0086156167 0.0083452798 0.079904556
0.0090512959 0.0084035564 0.080486409
0.0094013996 0.0083809048 0.080293417
0.0099056913 0.0084921727 0.081383802
0.010280398 0.0084882369 0.081370398
0.010576694 0.0084221428 0.080760799
0.010856336 0.0083477851 0.080071367
0.01127435 0.0083812308 0.080415502
0.011608485 0.0083521772 0.080159552
0.011850069 0.0082604177 0.079300925
0.01225167 0.0082823765 0.079533152
0.012741206 0.00836075 0.080306627
0.013157262 0.0083878152 0.080586657
0.01343427 0.0083271917 0.080023132
0.013713822 0.008271371 0.079504408
0.014065251 0.0082606943 0.079418249
0.014311522 0.0081903841 0.078757286
0.014756988 0.0082347328 0.079197377
0.015191471 0.0082709463 0.079557791
0.015382484 0.0081760306 0.078655124
0.015601809 0.0081002163 0.077934235
0.015689475 0.0079610366 0.076601587
0.015953995 0.0079157781 0.076170519
0.015627693 0.007585695 0.07299649
0.015739076 0.0074775708 0.071956128
0.016322087 0.0075933519 0.07306812
0.016619509 0.0075742612 0.072879918
0.017511284 0.0078213997 0.075250663
0.017516972 0.0076708412 0.073792383
0.017476059 0.0075060464 0.072194859
0.017790185 0.0074970769 0.072093524
0.0177889 0.0073579773 0.070738241
-0.019978171 0.0086660031 0.079744995
-0.019529644 0.0086315973 0.079448812
-0.01924235 0.0086684972 0.079805709
-0.018693093 0.0085865175 0.079064965
-0.018434713 0.0086375419 0.079545893
-0.018514104 0.0088521512 0.081530787
-0.018315757 0.0089401556 0.082347095
-0.017768702 0.0088580726 0.081594117
-0.017266849 0.0087954402 0.081017762
-0.016789084 0.0087425597 0.0805289
-0.01610541 0.0085776038 0.079005577
-0.016465925 0.0089740483 0.082650892
-0.016571123 0.0092469482 0.085155837
-0.015914731 0.009097822 0.083772302
-0.015495962 0.009080465 0.083600506
-0.014771113 0.0088782441 0.081725433
-0.014441771 0.0089093465 0.08199691
-0.014081352 0.0089224419 0.082101196
-0.013748397 0.0089541543 0.082375459
-0.013462443 0.0090191728 0.082954817
-0.013131796 0.0090572014 0.083284691
-0.013037615 0.0092655951 0.085179672
-0.012737454 0.0093360795 0.085805386
-0.012238259 0.0092605203 0.085088171
-0.011699257 0.0091487775 0.084038384
-0.011288147 0.0091327745 0.0838679
-0.010894286 0.0091300765 0.083819322
-0.010914471 0.0094870776 0.087071791
-0.010690285 0.0096510332 0.088550992
-0.0099780615 0.0093698725 0.085946403
-0.0095447153 0.0093380166 0.0856295
-0.009114489 0.0093065631 0.085316628
-0.0087154768 0.0093055665 0.085283332
-0.0083147818 0.0093025891 0.085232258
-0.007969738 0.0093647055 0.085777871
-0.007531628 0.009318254 0.085329555
-0.0072177602 0.0094289137 0.086320437
-0.0069745886 0.0096504921 0.088326693
-0.006425133 0.009449495 0.086466067
-0.0060932143 0.0095629226 0.087483652
-0.0055965618 0.0094155287 0.08611618
-0.005198651 0.0094242794 0.086178146
-0.0048092203 0.0094511677 0.086406976
-0.0044398974 0.0095261335 0.087076336
-0.0040091136 0.0094710551 0.086558163
-0.0035895677 0.0094331279 0.086198129
-0.0032152922 0.0095196273 0.086976334
-0.0028813898 0.009768079 0.089235164
-0.0024280404 0.0096271969 0.087938584
-0.0020170305 0.0096309315 0.087964565
-0.0015970076 0.0095825028 0.0875156
-0.0011883848 0.0095926523 0.087603144
-0.00076884928 0.0094789676 0.086561337
-0.00036229775 0.0094502801 0.086297259
4.1644536e-05 0.0093866512 0.085715637
0.00043930949 0.0093053551 0.084974162
0.00084672758 0.009409735 0.085929729
0.0012799742 0.0096414071 0.088049337
0.0017015737 0.0096938172 0.088533491
0.0021007394 0.009622925 0.087892994
0.0024825349 0.0095087318 0.086858325
0.0028510613 0.0093830181 0.085719608
0.0032404724 0.0093485815 0.085415944
0.0036770918 0.009442945 0.086290509
0.0040620724 0.0093991412 0.085903861
0.0044359807 0.0093399165 0.085377343
0.0048807496 0.0094273472 0.086192638
0.0053428481 0.009532352 0.087170094
0.0058427425 0.0096851187 0.088585891
0.0062202043 0.009628145 0.088084482
0.0064873989 0.0094181644 0.086183667
0.0066762278 0.009125622 0.083527103
0.0070886826 0.0091541838 0.083809786
0.0075311428 0.0092164744 0.084402174
0.0079286974 0.0092203477 0.084460363
0.0081588775 0.0090384372 0.08281678
0.0085012773 0.0089916773 0.082411431
0.0088070268 0.0089118788 0.081703253
0.0091561358 0.0088807587 0.08144132
0.0095681008 0.0089106532 0.081739046
0.0099187642 0.0088833561 0.081512228
0.010525273 0.0090787569 0.083329223
0.010665705 0.0088725332 0.081459738
0.010913477 0.0087667089 0.080510959
0.011366244 0.0088271135 0.081088327
0.01163351 0.0087442044 0.080348633
0.011913828 0.0086759664 0.079742812
0.012215274 0.008626773 0.079311088
0.012759869 0.0087471455 0.080437668
0.013178047 0.0087764682 0.0807264
0.01353774 0.0087662954 0.080650881
0.013806154 0.0086991573 0.080049999
0.013870775 0.008510503 0.078329198
0.014411789 0.0086163189 0.079317182
0.014695674 0.0085669607 0.078875348
0.015236757 0.0086662928 0.079800971
0.015784347 0.0087645175 0.080714926
0.016047427 0.0087038726 0.080164015
0.016050264 0.0085080275 0.078365706
0.015928347 0.0082562016 0.076049522
0.015638672 0.0079302303 0.0730481
0.015775932 0.0078299996 0.072123878
0.016153008 0.0078504877 0.07230939
0.016867781 0.008030924 0.073965661
0.017896026 0.0083504245 0.076899737
0.017228907 0.0078818314 0.072573744
0.017107995 0.0076763066 0.070668258
0.01735317 0.0076396908 0.070315376
0.019627694 0.0077638361 0.071295388
-0.019922219 0.0088472199 0.078038469
-0.019326348 0.0087418435 0.077133387
-0.019393273 0.0089379521 0.078885317
-0.019212345 0.0090251863 0.079673767
-0.018828919 0.0090188552 0.079633251
-0.018178318 0.0088817291 0.078434683
-0.017923165 0.0089361593 0.078924805
-0.017516483 0.0089157354 0.078751169
-0.017430622 0.0090612173 0.08004044
-0.017146658 0.0091078104 0.080453813
-0.016431212 0.0089221867 0.07881356
-0.016220899 0.0090086404 0.079574503
-0.016377183 0.0093074702 0.082209133
-0.016311061 0.0094911484 0.083824389
-0.015986567 0.0095297927 0.084156618
-0.015354357 0.0093823429 0.08284381
-0.014942359 0.0093653314 0.082681298
-0.014406204 0.0092675528 0.08180438
-0.014049631 0.0092831282 0.081926778
-0.013870312 0.0094199544 0.083117731
-0.013464056 0.0094060842 0.08297763
-0.013032941 0.0093735149 0.08267162
-0.012835395 0.0095120585 0.08387363
-0.012559049 0.0095990608 0.084619887
-0.012235885 0.0096547557 0.08508911
-0.01190421 0.0097072339 0.085529149
-0.011399588 0.0096174348 0.084715225
-0.010963239 0.0095808636 0.084370069
-0.010656639 0.0096591767 0.085036226
-0.010369334 0.0097617023 0.085914947
-0.0096468376 0.0094463183 0.08311601
-0.0093332948 0.0095217489 0.08375641
-0.0089815538 0.0095630977 0.084096864
-0.0085321581 0.0094994977 0.083514698
-0.0081300149 0.0094849374 0.083364189
-0.0078226365 0.0095850276 0.084221564
-0.0074636173 0.0096290866 0.084586792
-0.0071799266 0.0097806863 0.085896872
-0.0069160438 0.0099788094 0.08761546
-0.0067228614 0.010310287 0.090504579
-0.0061040227 0.0099896519 0.087670252
-0.0056344219 0.0098846862 0.086730421
-0.0051411167 0.0097186305 0.085256055
-0.0047387839 0.0097110858 0.085173562
-0.0043861633 0.0098133804 0.086055391
-0.0039613587 0.0097585274 0.08556024
-0.0036019371 0.0098705152 0.086529046
-0.0032363422 0.0099918069 0.087580398
-0.002768016 0.0097851111 0.085758254
-0.0024025952 0.0099337827 0.087052032
-0.0019926673 0.0099215778 0.086937264
-0.0015721635 0.0098369345 0.086189218
-0.0011688899 0.0098388726 0.08620128
-0.00076410483 0.0098234247 0.086062446
-0.00035367627 0.0096199987 0.084278248
4.0557617e-05 0.0095326835 0.083512746
0.0004362397 0.0096355751 0.084414996
0.00084288535 0.0097676991 0.085574836
0.0012634199 0.0099237766 0.086946048
0.001689906 0.010039143 0.087962165
0.0020826033 0.0099479044 0.087169454
0.0024657133 0.0098482687 0.086304449
0.0028843398 0.0098985713 0.086754702
0.0032728789 0.0098459469 0.08630424
0.0036349494 0.0097340029 0.085334904
0.0040505072 0.009773274 0.085692383
0.0044852439 0.0098475814 0.086358398
0.0049237735 0.009917248 0.086985119
0.0053669964 0.0099850129 0.087596484
0.0057908031 0.010009609 0.087830357
0.0061726114 0.0099631585 0.087441765
0.0064032483 0.0096936235 0.085095547
0.0066600693 0.0094929272 0.083353497
0.0070994855 0.0095602889 0.083965622
0.007511734 0.00958593 0.084212162
0.0079243081 0.0096094143 0.084440447
0.0082060872 0.0094795804 0.083321735
0.0085589355 0.0094398782 0.082995251
0.0088746753 0.0093644569 0.082354754
0.0092046782 0.0093097184 0.081896037
0.0095181018 0.0092432406 0.081333883
0.010107431 0.0094395308 0.083084241
0.010383939 0.0093399659 0.082230717
0.010825981 0.0093910787 0.082703508
0.011106825 0.0093036508 0.081955858
0.011444919 0.0092683956 0.081667095
0.011619102 0.009106935 0.08026538
0.011923962 0.009054766 0.079825833
0.012340823 0.0090882303 0.080140494
0.012706237 0.0090829562 0.080112807
0.013085745 0.0090877702 0.080173194
0.013463512 0.0090911416 0.080219835
0.013718444 0.009013623 0.079551451
0.013817175 0.0088402368 0.078035295
0.013913314 0.0086741028 0.076581307
0.014418161 0.0087647038 0.077392414
0.015025225 0.0089115221 0.078698635
0.015729774 0.0091078114 0.080440387
0.016110471 0.0091118272 0.080482289
0.015633438 0.0086415429 0.076332599
0.015824338 0.0085531324 0.075553834
0.0158848 0.0083995843 0.074197531
0.016054947 0.0083093233 0.073398113
0.016524162 0.0083743827 0.073968381
0.017190982 0.0085348971 0.075379178
0.017061356 0.0083014816 0.073308356
0.016716128 0.007974348 0.070408039
0.017407229 0.0079912869 0.070526414
0.019643527 0.0081024561 0.071337499
-0.01952794 0.0090278508 0.076481991
-0.018990893 0.0089424681 0.075783938
-0.019017829 0.0091244485 0.077348635
-0.019216973 0.0093976567 0.079684518
-0.018775476 0.0093621528 0.07940013
-0.018550828 0.0094355224 0.080036171
-0.017665476 0.0091689657 0.077785701
-0.017390955 0.0092149386 0.078183681
-0.017346866 0.009387576 0.079653919
-0.017331261 0.0095834853 0.08131931
-0.016757289 0.0094724922 0.080378197
-0.016308308 0.0094287032 0.080005109
-0.016073458 0.0095095607 0.08068756
-0.016063491 0.009730503 0.082556464
-0.015648909 0.0097111594 0.082384698
-0.015427079 0.0098134596 0.083243027
-0.01494939 0.0097540785 0.0827282
-0.014603985 0.0097801527 0.082936652
-0.013963418 0.0096046152 0.08143422
-0.013681845 0.0096731074 0.081999704
-0.013375068 0.0097271977 0.08244174
-0.012999999 0.0097333463 0.082476303
-0.012517473 0.0096569657 0.08181075
-0.012448173 0.0099045876 0.083888866
-0.012296746 0.010100778 0.08552976
-0.01202193 0.01020535 0.08639361
-0.01149065 0.010091914 0.085411429
-0.010928999 0.0099427132 0.084126718
-0.010497059 0.009904813 0.083783872
-0.010175598 0.0099722557 0.084331863
-0.0098637957 0.010054962 0.085008517
-0.0094814133 0.010069632 0.085109763
-0.0090306373 0.010009775 0.084581286
-0.0085338159 0.0098910816 0.083556294
-0.0080821002 0.0098158093 0.082898818
-0.0077894786 0.0099359034 0.0838916
-0.00743077 0.0099799493 0.084242411
-0.0071268426 0.010106605 0.085290745
-0.0068738242 0.010324717 0.087110847
-0.0064891903 0.010360146 0.087389857
-0.0061046449 0.010400482 0.087710962
-0.0055534453 0.01014226 0.085515499
-0.0050829882 0.010002891 0.084323734
-0.0046971408 0.010020589 0.084457263
-0.0043573072 0.01014871 0.085522301
-0.0039818035 0.010211245 0.086035512
-0.0036171114 0.010318684 0.086928017
-0.0032143875 0.0103311 0.087021083
-0.0028040484 0.010319093 0.086909711
-0.0023829876 0.010256864 0.086376756
-0.0019850757 0.010289203 0.08664152
-0.0015654661 0.010196814 0.085857406
-0.0011646389 0.010205206 0.085923299
-0.00075598329 0.010117681 0.085183024
-0.00035479662 0.010046328 0.084580354
4.1172949e-05 0.010074267 0.084815018
0.00044236355 0.010171631 0.085635573
0.00083575316 0.010082323 0.084885903
0.0012525067 0.010241607 0.086230673
0.0016547854 0.010233745 0.086169541
0.0020441273 0.010164634 0.085594006
0.0024655501 0.010251559 0.086333804
0.0028715513 0.010258915 0.086404897
0.0032655271 0.010226796 0.086144768
0.0034275318 0.0095550586 0.080497339
0.0039200801 0.0098465569 0.082965471
0.0044792471 0.010237815 0.086276211
0.0049044285 0.010283485 0.086676314
0.0052442895 0.010156939 0.085625768
0.0056502651 0.010167305 0.08573027
0.0060721389 0.010203015 0.086049475
0.0063871597 0.010065894 0.084911741
0.0066760709 0.0099060647 0.083582662
0.0071175154 0.0099777216 0.084207296
0.0074538216 0.0099022025 0.083590426
0.0078490395 0.0099085663 0.0836652
0.0082078204 0.0098705115 0.083365284
0.0086178184 0.0098947017 0.083591424
0.0088262334 0.009695367 0.081929095
0.009184625 0.009670482 0.081740625
0.0095240353 0.0096283918 0.081406638
0.0099700578 0.0096931746 0.081976324
0.010415668 0.0097527932 0.082502499
0.010815858 0.0097671514 0.082645781
0.011117181 0.0096943108 0.082050763
0.011290129 0.0095180841 0.080579773
0.011564725 0.0094361259 0.079905808
0.012028255 0.0095086331 0.080539234
0.012557175 0.0096268887 0.081559822
0.012741346 0.0094816582 0.080347225
0.012749124 0.0092171784 0.078122459
0.01307182 0.0091887172 0.077896588
0.013429385 0.0091856401 0.077884734
0.013550135 0.0090249963 0.076535396
0.013759673 0.0089301923 0.075742729
0.014190198 0.008979965 0.076174811
0.014853078 0.0091707772 0.077801995
0.015332526 0.0092419591 0.078412801
0.01551824 0.0091368919 0.077526398
0.015553331 0.0089499168 0.075942941
0.015560768 0.0087556718 0.074295707
0.016080305 0.0088517489 0.075109862
0.016310887 0.0087880632 0.074566148
0.016617535 0.008767155 0.07438311
0.016375311 0.0084634209 0.071798332
0.016625669 0.0084213158 0.071430892
0.01667437 0.0082807122 0.070225634
0.017078945 0.0083188461 0.07053367
0.01736501 0.0082989065 0.070346452
0.017970279 0.0084294351 0.071431503
0.017947175 0.0082658213 0.070020996
-0.019871637 0.0093778986 0.076392241
-0.0193593 0.0093025398 0.075808458
-0.01903937 0.0093185548 0.07596568
-0.019023206 0.0094866613 0.077359959
-0.018890858 0.0096021881 0.078322962
-0.019057304 0.0098771164 0.080583803
-0.018347109 0.0096996101 0.079150558
-0.018128483 0.0097800354 0.079819068
-0.017510381 0.0096438089 0.078716606
-0.017487017 0.0098363087 0.080294743
-0.017279422 0.0099313091 0.081074655
-0.016834645 0.0098911868 0.080749124
-0.016209602 0.0097409077 0.079522036
-0.015839502 0.0097403983 0.079515539
-0.015612653 0.0098300558 0.080243096
-0.015501814 0.0099989297 0.081615277
-0.015284291 0.01010573 0.082478836
-0.014902358 0.010106522 0.082475424
-0.014362308 0.0099972943 0.081572764
-0.013904359 0.0099408431 0.081099533
-0.013585193 0.0099832322 0.081431374
-0.013250524 0.010016331 0.081686154
-0.012886365 0.010028437 0.081768595
-0.012535148 0.010051654 0.081940629
-0.012496099 0.010334494 0.084227711
-0.012257588 0.010465347 0.08527457
-0.011864281 0.01046837 0.085278943
-0.011456592 0.010458474 0.085177533
-0.010939824 0.010344723 0.08423014
-0.010517975 0.010315607 0.083971836
-0.010243915 0.010434782 0.084920272
-0.010020987 0.010617711 0.086386785
-0.0096122697 0.010610857 0.086308859
-0.0092718825 0.010682128 0.086866342
-0.0086467378 0.010416858 0.08468768
-0.0082285721 0.010387482 0.084427692
-0.007780456 0.010315444 0.08382152
-0.007547216 0.010535745 0.085590996
-0.0071961028 0.010606923 0.086148977
-0.0067775901 0.010581301 0.085921288
-0.0063860603 0.01059723 0.086031727
-0.005975931 0.010582361 0.085892901
-0.0056130798 0.010655099 0.08646588
-0.0051294314 0.010492031 0.085126363
-0.0046922592 0.010404605 0.084401891
-0.004353507 0.010539399 0.085481025
-0.0039891824 0.010633267 0.086228974
-0.0036126042 0.010711908 0.086854391
-0.0031903551 0.010657893 0.086405337
-0.0028022062 0.010718649 0.086888
-0.0023950159 0.010714829 0.086848378
-0.0019829853 0.010683368 0.086586066
-0.0015779893 0.010683385 0.086580209
-0.0011767168 0.010717326 0.086850591
-0.00076161843 0.010594736 0.08585389
-0.00035788713 0.010533143 0.085352868
4.1498075e-05 0.010553911 0.085520633
0.00044217022 0.010567802 0.085634008
0.00083650119 0.010488976 0.084997438
0.0012365633 0.010509653 0.085168518
0.0016592111 0.010665434 0.086435862
0.0020598802 0.01064657 0.086289242
0.0024501032 0.010588745 0.085828081
0.0029655611 0.011012242 0.089269944
0.0031998511 0.010415979 0.084446259
0.0035538406 0.010297547 0.083497033
0.0039623715 0.010344954 0.083893552
0.0044447966 0.010559372 0.085645884
0.0048192181 0.010502978 0.085202977
0.0051210965 0.010309155 0.083645843
0.00547062 0.010231931 0.083035283
0.005900661 0.010305557 0.083649784
0.0062707141 0.010271776 0.083393335
0.0066563901 0.010266039 0.083365232
0.0069725215 0.010159603 0.082519852
0.0073090182 0.010092433 0.081993647
0.0076954123 0.010097415 0.082054019
0.0080911694 0.01011363 0.082206123
0.0085090585 0.010154789 0.082561433
0.0088218916 0.010072437 0.081912719
0.0091551216 0.01001924 0.081500985
0.009499128 0.0099816062 0.081215702
0.0098901195 0.0099943345 0.081340134
0.010374324 0.010096846 0.082195394
0.01081723 0.010153295 0.082675762
0.011001384 0.0099713411 0.081214301
0.01118048 0.0097970432 0.079814054
0.011442877 0.009704601 0.079079628
0.012172065 0.010001466 0.081517272
0.012603643 0.010043246 0.081875734
0.012682866 0.0098100323 0.079991177
0.012654016 0.0095088938 0.077550933
0.012917755 0.0094382148 0.076988608
0.013326132 0.0094741741 0.077294953
0.013543074 0.0093757203 0.076503351
0.01388884 0.0093692038 0.076460473
0.014248674 0.0093722651 0.076494291
0.014769699 0.009478624 0.07736972
0.015044136 0.009425438 0.0769412
0.015508374 0.0094908755 0.077479191
0.015723769 0.0094045093 0.076775998
0.015695931 0.0091797216 0.074940689
0.015657425 0.008958579 0.073133089
0.016159192 0.0090493876 0.073869906
0.016330237 0.0089550614 0.073093168
0.016328061 0.008771522 0.071586095
0.016475776 0.0086742248 0.07078068
0.016997298 0.0087736873 0.071578167
0.01717535 0.0086954422 0.07092312
0.017788934 0.0088364882 0.072053693
0.017631076 0.0085961986 0.070072122
0.017947366 0.0085916119 0.070009433
-0.019561563 0.0097560687 0.07658612
-0.019258259 0.0097830063 0.076826036
-0.01888261 0.0097735226 0.076776646
-0.018973343 0.010009718 0.078654528
-0.018389238 0.0098921759 0.077749975
-0.018707793 0.010265227 0.080698766
-0.01852992 0.010375568 0.08158011
-0.017889785 0.010226277 0.080417201
-0.017396942 0.010156608 0.079877555
-0.017337196 0.010342263 0.081343457
-0.016590545 0.010117297 0.079577379
-0.016043233 0.010006411 0.07870625
-0.015411356 0.0098363822 0.07736785
-0.01523369 0.0099550588 0.078298301
-0.015319789 0.010256121 0.08066123
-0.015308753 0.010505619 0.082616515
-0.014749987 0.0103824 0.081638999
-0.014306573 0.010336017 0.081264272
-0.013879471 0.010299225 0.080963589
-0.013677267 0.010431916 0.081993826
-0.013380593 0.010498093 0.08249981
-0.013061646 0.010550185 0.082893834
-0.012725524 0.010591148 0.083199307
-0.012309992 0.010566518 0.082988597
-0.011947765 0.01058753 0.083135612
-0.011641453 0.010661155 0.083694927
-0.011248254 0.01065755 0.083647288
-0.01089293 0.010690859 0.083888866
-0.010559726 0.010749162 0.084326066
-0.010313605 0.010904036 0.0855202
-0.00998786 0.010983789 0.086124592
-0.0096006552 0.0109998 0.086228922
-0.0091435499 0.010933625 0.08568915
-0.0088383276 0.011051314 0.086590439
-0.0083166435 0.010896659 0.085358113
-0.0081182821 0.011171371 0.087489329
-0.0076995227 0.011155824 0.087347321
-0.0073521887 0.011247813 0.088047639
-0.006865303 0.011124561 0.0870637
-0.0063846586 0.010996549 0.086043626
-0.0060748337 0.01116531 0.08734636
-0.0057172817 0.011264325 0.088103853
-0.0052461778 0.01113763 0.087096877
-0.0047281957 0.010881743 0.085081093
-0.0043035531 0.010813423 0.084533237
-0.0039660865 0.010972471 0.085763752
-0.0035934832 0.011059142 0.086429343
-0.0032118466 0.011136444 0.087022685
-0.0028102272 0.011156832 0.087172389
-0.0023861062 0.011079648 0.086561002
-0.0019507245 0.010907971 0.085212819
-0.0015542816 0.010921791 0.085315049
-0.0011737262 0.011095342 0.086666219
-0.00076127303 0.010991388 0.085851081
-0.00035743046 0.010918496 0.085279904
4.1539814e-05 0.010965019 0.085642748
0.00043942363 0.010900291 0.085137963
0.00082465494 0.010732433 0.083828971
0.0012291716 0.010842863 0.0846949
0.0016497334 0.011006521 0.085978001
0.0020814934 0.011166117 0.087230809
0.0025558085 0.011464306 0.089567885
0.0029309662 0.011296375 0.088264607
0.0032547293 0.010996248 0.085929282
0.0035920814 0.010802926 0.084429279
0.0040108846 0.010868584 0.084954299
0.0044409302 0.010950138 0.085604779
0.0047916682 0.01083882 0.084748447
0.0050937869 0.010642908 0.083231218
0.0054281359 0.010537344 0.082421027
0.0058059106 0.010524479 0.082336523
0.0062887319 0.010691804 0.083662733
0.0065260381 0.010446556 0.081761137
0.0068809967 0.010406332 0.08146432
0.0072182622 0.010344962 0.081002317
0.0076410584 0.010406177 0.081500627
0.0079992469 0.010377774 0.081297509
0.0084237391 0.01043407 0.081758246
0.0088085989 0.010438523 0.081813104
0.009202213 0.010452552 0.081943162
0.0094579691 0.010315112 0.080885559
0.0098944977 0.010377805 0.081397116
0.010422122 0.010527891 0.082594365
0.010778538 0.010500506 0.082399286
0.0109034 0.010257171 0.080508754
0.011106756 0.010101392 0.079304278
0.01152018 0.010140539 0.079629377
0.011920481 0.010166058 0.079846926
0.012447299 0.010294671 0.080873698
0.01268298 0.010182015 0.08000423
0.012763413 0.0099546928 0.078232333
0.012975527 0.0098398216 0.077342637
0.01379953 0.010182654 0.080049664
0.013783935 0.0099042123 0.077871434
0.013869738 0.0097110085 0.076361492
0.014222481 0.0097096795 0.076358683
0.014426832 0.0096095707 0.075577423
0.014905876 0.009692844 0.076236695
0.015289529 0.0097116604 0.076387227
0.015673434 0.0097297821 0.07653036
0.015631562 0.0094886441 0.074632242
0.01559474 0.0092609664 0.072838008
0.016011301 0.009306483 0.073190302
0.01650233 0.0093924897 0.073858611
0.016573634 0.0092409682 0.072656736
0.01667957 0.00911442 0.071648985
0.016884197 0.0090456968 0.07109347
0.017319784 0.0091009745 0.071509801
0.017616631 0.0090826396 0.07134477
-0.019160017 0.0100886 0.076419972
-0.018907679 0.010143945 0.0768658
-0.018315962 0.010015838 0.075918145
-0.018533109 0.010333705 0.078348167
-0.018624665 0.010592881 0.080331318
-0.01868164 0.010842591 0.082240492
-0.017819246 0.010557993 0.080094151
-0.017262423 0.010446172 0.079255424
-0.017026437 0.01052786 0.079882279
-0.016558433 0.01046653 0.079421587
-0.015957458 0.010316439 0.078285046
-0.015470715 0.010234921 0.07766673
-0.015350876 0.010398042 0.078902833
-0.015539357 0.010783086 0.081820905
-0.015347013 0.010916548 0.082827993
-0.014904071 0.010874033 0.082498126
-0.014430518 0.010806354 0.081975818
-0.013937716 0.0107202 0.081312053
-0.013535159 0.010700591 0.081151798
-0.013316039 0.010829033 0.082113013
-0.013093121 0.010961879 0.08310616
-0.012646087 0.010909459 0.082693629
-0.012199427 0.010854085 0.082257986
-0.011813203 0.010850638 0.082215168
-0.011590865 0.011002528 0.083348438
-0.011306541 0.011104056 0.084099203
-0.010835499 0.011022916 0.083465986
-0.010501102 0.011079916 0.083878458
-0.010371015 0.011365217 0.086018361
-0.0096687842 0.011021259 0.083395623
-0.009277367 0.011017633 0.083348624
-0.0090932464 0.011270622 0.08524254
-0.0087155867 0.011295881 0.085413702
-0.0083714444 0.011369077 0.085947372
-0.0079571139 0.011349523 0.085780069
-0.0078375209 0.011770536 0.088942297
-0.0074134334 0.011755753 0.088811323
-0.006925757 0.011632416 0.087861024
-0.0064882995 0.011583216 0.087471589
-0.0060888277 0.01159978 0.087579533
-0.0057039801 0.011648588 0.087931626
-0.0052313902 0.011511888 0.086884327
-0.0046931496 0.011195592 0.08448302
-0.0042968141 0.011190827 0.084433906
-0.0039114365 0.01121652 0.084615551
-0.0035119539 0.011202998 0.084502377
-0.0032472715 0.011670514 0.088018246
-0.0028177686 0.011595364 0.087442167
-0.0023628867 0.011372573 0.085754119
-0.0019121607 0.011082866 0.08356303
-0.0015175933 0.011053485 0.0833361
-0.0011459219 0.011228158 0.084648766
-0.00075174583 0.011250266 0.08481241
-0.00035943321 0.011380704 0.085793979
4.1165626e-05 0.011263133 0.084907167
0.00043447749 0.011171244 0.084215209
0.00082198263 0.011088381 0.083592542
0.001221798 0.011171474 0.084222212
0.0016198659 0.011201984 0.084456719
0.0020453064 0.01137274 0.085749939
0.0024756966 0.011510561 0.086796194
0.0028876734 0.011536017 0.086996473
0.0032287128 0.011306772 0.085276969
0.0036121821 0.011260158 0.084935762
0.0039817709 0.011183782 0.084371015
0.0044202115 0.011297135 0.085238673
0.0047749453 0.011195495 0.084485136
0.0050945128 0.011033208 0.083274536
0.0053795227 0.010824399 0.081713177
0.0059764213 0.011229258 0.084785447
0.0063812435 0.011245348 0.08492367
0.0065078246 0.010797894 0.081561267
0.0068668621 0.010764264 0.081324525
0.0073822476 0.010966408 0.082869835
0.0077347811 0.01091856 0.082526699
0.0079890164 0.010743062 0.081218705
0.0082624136 0.010608045 0.080216497
0.0086599812 0.010637237 0.080455981
0.0091001103 0.010714117 0.081056461
0.0094364285 0.010667517 0.080722831
0.0099692065 0.010838071 0.082032569
0.010430633 0.01092133 0.082681835
0.010691648 0.010796292 0.081753805
0.01073759 0.010470129 0.079301633
0.01107637 0.010441696 0.079103425
0.011433116 0.010431482 0.079042621
0.011926605 0.010542783 0.07990206
0.012362272 0.010597789 0.080334306
0.012705601 0.010572732 0.080158815
0.012821275 0.010365061 0.078597493
0.013531431 0.010636177 0.080665767
0.013841911 0.010586986 0.080303848
0.013905003 0.010356129 0.078562342
0.014020726 0.010175277 0.077198401
0.014069046 0.0099557461 0.075539209
0.014417784 0.00995431 0.075533114
0.0146392 0.0098671252 0.074874595
0.014990154 0.0098692728 0.074892141
0.015244097 0.0098088989 0.074433327
0.0154364 0.0097124195 0.073698558
0.015714588 0.009672991 0.073394611
0.016139422 0.0097235879 0.073771492
0.016519023 0.0097453957 0.073927552
0.016703004 0.00965326 0.073216833
0.016813817 0.0095233573 0.072217412
0.017136868 0.0095164012 0.072147816
0.017323731 0.0094355335 0.071515262
-0.019206474 0.01046942 0.076589778
-0.018929711 0.010513629 0.076941319
-0.018536149 0.010493419 0.076818258
-0.018218007 0.010515952 0.077005006
-0.018721106 0.011022933 0.080737174
-0.017973552 0.010799208 0.079114914
-0.017538961 0.010758108 0.078827396
-0.017134683 0.010734245 0.078663446
-0.01697186 0.010863902 0.079622097
-0.016694276 0.010924237 0.080070414
-0.016363261 0.010951558 0.080274507
-0.016018329 0.010970625 0.080415934
-0.015816012 0.011090608 0.081295036
-0.015499718 0.011134581 0.081614994
-0.015075836 0.011101529 0.08136858
-0.014763938 0.011151363 0.081727922
-0.014460393 0.011210303 0.082152352
-0.013889144 0.011059276 0.081036679
-0.013294947 0.010881055 0.079720683
-0.01318775 0.011102618 0.081332453
-0.01311026 0.011363003 0.083226971
-0.012767939 0.011402704 0.083503723
-0.012193631 0.011231218 0.082233153
-0.011818459 0.011237986 0.082267173
-0.011687027 0.011484729 0.084056839
-0.011350186 0.011539709 0.084441945
-0.010970205 0.0115532 0.084522836
-0.010614644 0.011594368 0.084805757
-0.0098692356 0.01119644 0.081877224
-0.009371656 0.011058996 0.080854222
-0.0091263298 0.011220175 0.082014352
-0.0089332797 0.011462513 0.083767071
-0.0086552463 0.011612961 0.084847689
-0.0082781408 0.011638518 0.085015722
-0.0078575956 0.0116025 0.084734254
-0.0075184759 0.011689267 0.085349768
-0.0072819865 0.011954212 0.087266125
-0.0068756863 0.011955253 0.087256104
-0.0064457846 0.011912806 0.086929329
-0.0060227243 0.011878156 0.086660214
-0.0056601553 0.011966404 0.087288395
-0.0052312724 0.011917268 0.086915195
-0.0047450084 0.011718166 0.085449398
-0.0043674358 0.011775576 0.085855149
-0.0038811471 0.011521844 0.083993554
-0.0034606305 0.011428274 0.083300851
-0.0030338862 0.011287834 0.082267717
-0.0027913633 0.011891466 0.08665821
-0.0023728556 0.011822985 0.086151466
-0.0019251481 0.011551326 0.084165558
-0.0015094575 0.011381637 0.082924001
-0.0011315764 0.011478294 0.083624177
-0.00076516456 0.011854591 0.086362705
-0.00035556973 0.011655092 0.084907629
4.0408679e-05 0.011445616 0.083381109
0.00043080491 0.011467135 0.083538599
0.00083501427 0.011661096 0.084953569
0.001216214 0.011512273 0.08387249
0.0016058153 0.011496125 0.083759122
0.002003693 0.011533949 0.084040172
0.0024118377 0.011608794 0.084592193
0.002797032 0.011567654 0.084300175
0.0032072163 0.011627263 0.08474347
0.003548336 0.011450899 0.083467878
0.0039907 0.011603833 0.084593616
0.0044101793 0.011668674 0.085078314
0.0047703185 0.011578766 0.084435612
0.0050690081 0.011364808 0.082888842
0.0054549612 0.011362967 0.082889684
0.0060001947 0.011671191 0.085153498
0.0062984102 0.011490487 0.083850957
0.0065329522 0.011221545 0.081904471
0.0069234339 0.011235373 0.082022071
0.0075611784 0.011628008 0.084906183
0.0079905568 0.011677084 0.08528275
0.0080345711 0.011185038 0.081706911
0.00819859 0.010897016 0.079620443
0.0085517569 0.010874447 0.07947319
0.0090559209 0.011037794 0.080684967
0.0096200276 0.01125828 0.082315005
0.010054246 0.011315685 0.08275301
0.010295991 0.011160227 0.081633963
0.010568144 0.01104762 0.080827601
0.010981888 0.011085677 0.081123061
0.01104796 0.010781911 0.078916177
0.011431996 0.010798004 0.079049461
0.011947449 0.010933359 0.080055334
0.012378654 0.010985768 0.080453314
0.012505789 0.010773161 0.078909375
0.013109989 0.010971927 0.080377534
0.013608461 0.011073652 0.081133991
0.01389687 0.011003562 0.080630384
0.014018224 0.010808348 0.079208352
0.01411842 0.010607226 0.077741258
0.014337667 0.010503344 0.076985143
0.014462337 0.01033692 0.075768843
0.014674251 0.010239276 0.075054929
0.015014556 0.010233672 0.075013824
0.015237219 0.010149959 0.074398242
0.015457124 0.01006816 0.073794715
0.015917625 0.010143226 0.074338779
0.016255975 0.010138918 0.074298792
0.015943538 0.0097373296 0.071345538
0.016286733 0.0097443601 0.071384251
0.016947718 0.0099374531 0.072783142
0.017338246 0.0099675031 0.07298483
0.01734828 0.0097818607 0.071604639
-0.018145788 0.011047858 0.078245021
-0.017597845 0.010933369 0.077451736
-0.017227706 0.010926877 0.077420525
-0.016997492 0.011010748 0.07802707
-0.016872769 0.0111681 0.079152033
-0.016794676 0.011364012 0.080548152
-0.01658123 0.011475177 0.081341438
-0.016055144 0.011370118 0.080599837
-0.015665811 0.011359203 0.080523469
-0.015182902 0.011278242 0.079948641
-0.014717166 0.011206299 0.07943593
-0.014307122 0.011174153 0.079203658
-0.014103836 0.011306054 0.080132551
-0.013785657 0.011350506 0.080440074
-0.01327059 0.011230813 0.079583012
-0.013000255 0.011317308 0.080185816
-0.013015906 0.011665216 0.082639225
-0.01278032 0.011802264 0.083597317
-0.012196015 0.011615776 0.082262881
-0.011736677 0.011540093 0.081712604
-0.011477207 0.011662441 0.082563773
-0.011463215 0.012051327 0.085300587
-0.011112957 0.012101905 0.085641682
-0.010561827 0.011929363 0.084403552
-0.010186269 0.011949457 0.084528282
-0.0095800189 0.011689672 0.082673319
-0.009071501 0.011532389 0.081543773
-0.0087795863 0.011648756 0.082349181
-0.0084761987 0.011759833 0.083116919
-0.0082495213 0.011993066 0.08474765
-0.0079128416 0.012081781 0.085356914
-0.0074516973 0.011979792 0.084619202
-0.0070573273 0.011979754 0.084602155
-0.0067617092 0.012157263 0.085839175
-0.0063713989 0.012176142 0.085956432
-0.0060036629 0.012243592 0.086417057
-0.0056718104 0.012399198 0.087500326
-0.005256271 0.012381798 0.08736331
-0.0048077842 0.012277338 0.08661294
-0.0043099783 0.012016204 0.084758542
-0.0038643228 0.011862381 0.083662376
-0.003450932 0.011784154 0.08310052
-0.0030931153 0.011899917 0.083907619
-0.0027326264 0.012037488 0.084869288
-0.0023475203 0.012094885 0.085266657
-0.0019338605 0.011998568 0.08458145
-0.0015190345 0.011843718 0.083484881
-0.0011543651 0.012108023 0.085343957
-0.00075320835 0.01206656 0.085048899
-0.00035468073 0.012021678 0.084730931
4.0555708e-05 0.011878267 0.083719678
0.00043458736 0.011961563 0.084307469
0.00083611155 0.012073865 0.085100882
0.0012389492 0.012126659 0.085476033
0.001602652 0.011864015 0.083628893
0.0019930529 0.01186321 0.083628453
0.0023778377 0.011834716 0.083433896
0.0027391433 0.011713836 0.082589015
0.003127004 0.011722339 0.082657292
0.0035757518 0.011932152 0.084146231
0.0039875261 0.011989265 0.084559508
0.0044124862 0.012072166 0.085155725
0.0047559538 0.011936832 0.084213391
0.0051139486 0.011855832 0.083654962
0.0055174874 0.01188442 0.083870493
0.0058837854 0.011834319 0.08353141
0.0063184844 0.011919473 0.084147692
0.0066051688 0.011731774 0.082838185
0.0069432058 0.011650981 0.082283676
0.0075354758 0.011982933 0.084644914
0.0079373382 0.011994131 0.084741287
0.0081849406 0.011782214 0.083261281
0.0082604522 0.011352952 0.080244631
0.0085907644 0.011295884 0.079858102
0.009065982 0.011426182 0.080796331
0.0096387137 0.011664104 0.082496084
0.0097417925 0.011337226 0.080200933
0.010143686 0.011369392 0.080445014
0.010688292 0.011553534 0.081764393
0.011077621 0.011562943 0.081847027
0.011263009 0.011365919 0.080467671
0.011440921 0.011174264 0.079125188
0.011887977 0.011249234 0.079669803
0.012192105 0.011188511 0.079252593
0.012570248 0.011197278 0.079326637
0.012992703 0.011243894 0.079667836
0.01356598 0.011414834 0.080888957
0.013787927 0.011288906 0.080005176
0.013987279 0.011151575 0.07903903
0.014335529 0.011136943 0.07894095
0.014553021 0.011023993 0.078144327
0.014651322 0.010828444 0.076760456
0.014736811 0.01063294 0.07537508
0.014982507 0.010559421 0.074852578
0.015219676 0.010483361 0.074310146
0.015515784 0.010450372 0.074070998
0.015812669 0.010419325 0.073843494
0.016235597 0.010470887 0.074199133
0.015990477 0.010098413 0.071547948
0.016232766 0.010042653 0.071138769
0.016534312 0.010025049 0.070997439
0.016961418 0.010082775 0.071386851
0.017245974 0.010055169 0.071169265
-0.018574368 0.011681053 0.08008042
-0.01784057 0.011449039 0.078509174
-0.017150113 0.011235733 0.077062704
-0.01679592 0.011238324 0.0770941
-0.016880099 0.01154074 0.079180062
-0.016746875 0.011704681 0.080313973
-0.016286258 0.011642056 0.079890981
-0.01587197 0.011610403 0.07967829
-0.015447587 0.011569679 0.079401255
-0.014949714 0.011470577 0.078721583
-0.014414887 0.011337439 0.077806562
-0.014118804 0.011390058 0.078164682
-0.013923158 0.01152862 0.07911092
-0.013813621 0.011747922 0.080609605
-0.013554298 0.01184851 0.081292108
-0.013406332 0.012054993 0.082699671
-0.013145138 0.012168841 0.083470292
-0.01281665 0.012225423 0.083846867
-0.012297318 0.012097803 0.08295919
-0.011524903 0.011704884 0.080251992
-0.01141499 0.011981039 0.08213149
-0.011372994 0.012350058 0.08464618
-0.011132587 0.012522352 0.08581131
-0.010651676 0.012426873 0.085140921
-0.01020162 0.012361405 0.084676012
-0.0097675137 0.012310784 0.08431267
-0.0092365518 0.012128741 0.083049424
-0.0087687317 0.012017329 0.082270153
-0.0085605374 0.012267804 0.08396814
-0.0081665609 0.012263273 0.083920501
-0.0080275126 0.012660336 0.086620733
-0.007607881 0.012633496 0.086420432
-0.0070775547 0.012409566 0.084872603
-0.0067036278 0.012449588 0.085130669
-0.0063867387 0.012607234 0.086193331
-0.0059837839 0.012604751 0.086161591
-0.0055011683 0.012422028 0.084898658
-0.0051044198 0.012419899 0.08487089
-0.0047331979 0.012484744 0.085301474
-0.0042816452 0.012330157 0.084233686
-0.0038567234 0.012228767 0.083530396
-0.0035247654 0.012432485 0.084911995
-0.0031074022 0.012348412 0.084328882
-0.0026867231 0.01222487 0.083477333
-0.0023003896 0.012242201 0.083588816
-0.0019102941 0.012242503 0.083585031
-0.0015230025 0.012265543 0.083737515
-0.0011432698 0.012386384 0.084558748
-0.00074811652 0.012379505 0.084509097
-0.00035116458 0.012294303 0.083925933
4.074219e-05 0.012325687 0.084139742
0.00043576126 0.012388685 0.084570453
0.00083744311 0.01249117 0.085271865
0.0012277635 0.012412751 0.084739439
0.0016147172 0.012346809 0.084293246
0.0019855946 0.012207865 0.08334966
0.0023707065 0.012187629 0.083217531
0.0027327447 0.012071165 0.08242929
0.0031326392 0.012130031 0.082839273
0.0035536073 0.012248604 0.083658069
0.0040342705 0.012529096 0.08558403
0.0044397856 0.012546701 0.085715391
0.0047825319 0.012398669 0.08471588
0.0051258621 0.012274629 0.083880834
0.0054907468 0.012216134 0.083494253
0.0059210239 0.012301242 0.08408986
0.0062911431 0.012258559 0.083812557
0.0066209305 0.012146873 0.083063848
0.006946255 0.012039792 0.082346804
0.0073514557 0.012075121 0.082604095
0.0077928766 0.012163468 0.083224572
0.0080832755 0.012018894 0.082251526
0.0084144976 0.01194535 0.08176446
0.0086512966 0.011749932 0.080442876
0.0090833977 0.011824979 0.080972813
0.0093063572 0.011632625 0.079671435
0.0096001318 0.011540134 0.079053462
0.010012948 0.011592287 0.079426028
0.010535 0.011762694 0.080608748
0.010811087 0.011656198 0.079893507
0.011116097 0.011586924 0.079432622
0.011532574 0.011634559 0.079772532
0.011831176 0.011564016 0.079301357
0.01216239 0.011528645 0.079070419
0.012471618 0.011475118 0.078713939
0.012895749 0.011527351 0.079081856
0.013214864 0.011485418 0.078802608
0.013412223 0.011342777 0.077831022
0.013804458 0.011368104 0.078010522
0.014205812 0.011399456 0.078229934
0.014637203 0.011452743 0.078598298
0.014673367 0.011201722 0.076876514
0.014645648 0.010915013 0.074908033
0.014533694 0.010580284 0.072608247
0.014844814 0.010561743 0.072476491
0.01531672 0.010655884 0.0731159
0.015482713 0.010537731 0.072296545
0.015540618 0.010352594 0.071015656
0.015909543 0.010378036 0.07117711
0.016167941 0.01033181 0.070844628
-0.018770644 0.011071253 0.073400684
-0.018392084 0.011700528 0.077699251
-0.018139949 0.012012151 0.079814218
-0.017345745 0.011726051 0.07793121
-0.016956512 0.011707352 0.077822223
-0.016726343 0.011800055 0.078451306
-0.016537387 0.011926611 0.07930322
-0.016115582 0.011887179 0.079049177
-0.01563726 0.01180325 0.078496963
-0.015429583 0.011924475 0.079307057
-0.014965687 0.011848774 0.078805491
-0.014495083 0.011763833 0.07824064
-0.01415905 0.011786547 0.078390069
-0.014027667 0.011985314 0.079708733
-0.013619461 0.011951926 0.079481907
-0.013852038 0.012494669 0.08308477
-0.013723873 0.012733801 0.08466696
-0.013280348 0.012685804 0.084338665
-0.012742713 0.012542257 0.083374165
-0.012036673 0.012218756 0.081212804
-0.011697395 0.012258675 0.081466325
-0.01151514 0.012471325 0.082866728
-0.011531796 0.012921579 0.085844539
-0.011129481 0.012917818 0.085804984
-0.01056682 0.01272075 0.08448115
-0.0099330479 0.012419546 0.082465939
-0.0095533635 0.012424599 0.082484357
-0.0092725148 0.012563996 0.083394252
-0.0090214713 0.012757719 0.084664233
-0.0082658455 0.012222992 0.081100404
-0.0083587179 0.012951835 0.085920259
-0.0078257015 0.012735382 0.084468707
-0.0073498227 0.012593927 0.083515249
-0.0070951497 0.012836877 0.085111134
-0.0067922701 0.013016207 0.086285062
-0.0063902941 0.013016251 0.086270787
-0.0057927486 0.01259121 0.08344005
-0.0053226426 0.012401932 0.082172915
-0.0049864287 0.012519465 0.082939371
-0.0046106721 0.012549131 0.083124265
-0.0042359219 0.012587233 0.083365716
-0.0038687624 0.012657871 0.083823375
-0.003502555 0.012747856 0.084409855
-0.0030483564 0.012499822 0.082759157
-0.0026474393 0.012430018 0.082289577
-0.0022923285 0.012588078 0.083329432
-0.0019039948 0.012590999 0.0833432
-0.0014969126 0.012439617 0.082336642
-0.0011451106 0.0128017 0.084729627
-0.00075556897 0.012901274 0.085386083
-0.0003486567 0.012595508 0.083360925
4.1059753e-05 0.012817627 0.084830552
0.00043872662 0.012870488 0.085181057
0.00083449011 0.012843797 0.085006133
0.001229585 0.012827332 0.084899947
0.001620129 0.012782984 0.084610231
0.0020072202 0.012734109 0.084291562
0.002403137 0.012748068 0.084389813
0.0027895672 0.012714854 0.084176756
0.0031558997 0.01260954 0.08348725
0.0035527623 0.012635946 0.083670698
0.0040062172 0.012838481 0.085021488
0.004413974 0.012871281 0.085249223
0.0047520641 0.012712293 0.08420743
0.0050960998 0.012592263 0.083424143
0.0054629883 0.012541719 0.083101757
0.0058918903 0.01263081 0.083705269
0.0062473891 0.01256125 0.083257936
0.0065537328 0.012406768 0.082248017
0.0069749416 0.01247479 0.082713455
0.0072982414 0.012369745 0.082031704
0.0076100342 0.012256619 0.081296377
0.0080287531 0.012318268 0.081720434
0.0083274525 0.012198524 0.0809412
0.0087402612 0.012249067 0.081291825
0.0090840096 0.012202648 0.08099892
0.0093914969 0.012113154 0.080419801
0.009603844 0.011912508 0.079102188
0.0099145928 0.011844222 0.078662843
0.010359167 0.011934976 0.079279408
0.010629344 0.01182547 0.078565225
0.011061125 0.01189706 0.079053558
0.01148277 0.011953493 0.079440668
0.011862131 0.011963766 0.079520285
0.012060702 0.011796584 0.078419402
0.012442378 0.011813053 0.078538239
0.012759291 0.011768846 0.078252584
0.013064806 0.011716868 0.077914052
0.013167175 0.011490415 0.076413855
0.013480116 0.011454779 0.076181166
0.0141355 0.011704521 0.077845007
0.014481625 0.011692118 0.077763781
0.014725146 0.011599493 0.077147305
0.014327905 0.011018506 0.073281065
0.014304468 0.010745274 0.071459994
0.014800377 0.01086571 0.072255075
0.015241615 0.010941559 0.072751507
0.015405575 0.010819382 0.071929157
0.015707064 0.010572482 0.070261441
0.016043965 0.010579322 0.070290163
-0.018542631 0.011483731 0.073868558
-0.01830544 0.011773741 0.075798966
-0.018187273 0.011927572 0.076817393
-0.018255213 0.012212069 0.07867527
-0.017939413 0.012246244 0.078918137
-0.017335208 0.012080859 0.077871919
-0.016971895 0.012079876 0.077882469
-0.016689302 0.012137556 0.078268722
-0.016508942 0.012273813 0.079159424
-0.01619501 0.012314706 0.07943292
-0.015719756 0.012231979 0.078906767
-0.015278666 0.01217252 0.078528546
-0.015133498 0.012351681 0.079687759
-0.014498712 0.01213019 0.078260295
-0.014214155 0.012197858 0.078696646
-0.0141231 0.01243953 0.080253944
-0.013770728 0.0124579 0.080369011
-0.012984475 0.012073842 0.077886626
-0.012975398 0.01241115 0.080056399
-0.013131467 0.012930988 0.083401866
-0.012524974 0.012708684 0.081959367
-0.011975692 0.012532308 0.080812342
-0.011595001 0.012526654 0.080765434
-0.011413924 0.012743489 0.082152009
-0.011336731 0.013095329 0.084407695
-0.011134413 0.013322678 0.085859768
-0.010379397 0.012881026 0.083000064
-0.0097535606 0.012571768 0.080993846
-0.0093642753 0.012554814 0.080870815
-0.0092258872 0.012886898 0.082995519
-0.0086000264 0.012537339 0.080730125
-0.0087619545 0.013356764 0.085991412
-0.0080639338 0.012880971 0.082913689
-0.0077296239 0.012967522 0.083456285
-0.0072482694 0.012803496 0.082386471
-0.0069047101 0.012878143 0.082852826
-0.0067685875 0.013371418 0.086012185
-0.0063867792 0.013410871 0.086252168
-0.0059001814 0.013220812 0.08501669
-0.0053673349 0.01289231 0.082891993
-0.0049601984 0.01283823 0.082532659
-0.0045632827 0.012803737 0.082299978
-0.0042111776 0.012900183 0.082909577
-0.0038452325 0.01296944 0.083345048
-0.0034596431 0.012980561 0.083407678
-0.0030158916 0.012748639 0.08190956
-0.0026777852 0.012960791 0.083265491
-0.0023220861 0.013145309 0.084444605
-0.0019285647 0.013147363 0.084452413
-0.0015075556 0.012914985 0.08295539
-0.0011554771 0.013316547 0.08553122
-0.00075748691 0.01333348 0.085637517
-0.00035468524 0.013209024 0.084836744
4.1308278e-05 0.013293468 0.085378692
0.00044119259 0.013342561 0.085694619
0.00083409599 0.013234217 0.085000388
0.001226894 0.013194556 0.084748313
0.0016309466 0.013265767 0.08520937
0.0020088512 0.01313806 0.084393695
0.0024077164 0.013166828 0.08458408
0.0027908245 0.013113454 0.084247686
0.0031646525 0.013035031 0.083751217
0.0035642672 0.013068383 0.083973758
0.0039354712 0.013001272 0.083551571
0.0043120403 0.012962381 0.083311424
0.0046774456 0.012899129 0.082915358
0.0050445967 0.012849976 0.082610533
0.0054510594 0.01290083 0.082949258
0.0058337268 0.012892366 0.082907215
0.0064259348 0.013319275 0.085665874
0.0066038403 0.012887729 0.082903646
0.006924103 0.012766335 0.082136348
0.0072808969 0.012721473 0.081861585
0.0075459932 0.012528829 0.080635838
0.0078666583 0.012442331 0.080093123
0.0083851283 0.012662366 0.081523836
0.0087270103 0.012608229 0.08118955
0.0092093972 0.012753154 0.082137145
0.0094828513 0.01260873 0.081221014
0.0095817056 0.012252111 0.078937203
0.010011901 0.012329862 0.079451285
0.010425502 0.012382366 0.079802431
0.010733427 0.012310065 0.079348668
0.011063766 0.01226742 0.079085343
0.01152103 0.012363728 0.079717167
0.011851486 0.012322192 0.079459459
0.01210435 0.012204927 0.078712411
0.012402787 0.012139143 0.078296222
0.012702262 0.012078093 0.07790941
0.012924482 0.011949005 0.077082403
0.013022531 0.011715165 0.07557825
0.013408567 0.011745878 0.075779319
0.013887942 0.011854693 0.07648284
0.014582734 0.012137376 0.078306489
0.014282862 0.011598575 0.074828528
0.014000541 0.011099281 0.071603902
0.014439573 0.011181758 0.072130688
0.015017132 0.011365335 0.073307551
0.015505147 0.011474508 0.074002199
0.015691897 0.011360828 0.073257416
0.015821343 0.011211368 0.0722799
0.015819553 0.010977061 0.070753463
0.016046045 0.010907472 0.070286743
-0.018137537 0.012251318 0.07658916
-0.018006988 0.012406905 0.077588782
-0.017494993 0.012300663 0.076948144
