# .PCD v0.7 - Point Cloud Data file format
VERSION 0.7
FIELDS x y z
SIZE 4 4 4
TYPE F F F
COUNT 1 1 1
WIDTH 1382
HEIGHT 1
VIEWPOINT 0 0 0 1 0 0 0
POINTS 1382
DATA ascii
0.012227073 0.027813226 0.10048116
0.012803137 0.028049089 0.10130604
0.013133709 0.027749479 0.10019504
0.013565244 0.027676452 0.099900499
0.014140812 0.027892372 0.10064667
0.01495333 0.028546764 0.10297167
0.015451134 0.028578296 0.10304664
0.015802462 0.028345181 0.10216511
0.016076278 0.027990783 0.10084472
0.016478056 0.027873028 0.10037491
0.016791262 0.027616121 0.099401817
0.017162232 0.027465504 0.098809116
0.017386679 0.027094463 0.097421393
0.017762311 0.026971973 0.096925236
0.018347951 0.027166534 0.097565018
0.018941477 0.027363019 0.098207481
0.019441366 0.027418114 0.098338388
0.019802725 0.02727982 0.097772218
0.019948822 0.026857976 0.096187524
0.020528182 0.027025232 0.096709393
0.021079907 0.027149636 0.097073063
0.021218555 0.026748035 0.095552735
0.021214383 0.026186837 0.093461163
0.021504043 0.02600381 0.092717521
0.02192156 0.025979619 0.092536546
0.022314336 0.025927624 0.092252322
0.022428753 0.025560403 0.090843566
0.023064092 0.025789488 0.091549963
0.024434585 0.026816931 0.095080204
0.024957655 0.026893925 0.095230594
0.025841521 0.027350022 0.096715651
0.027637439 0.028738543 0.10148346
0.027621109 0.02822724 0.099532463
0.028583936 0.028716967 0.10110544
0.028866269 0.028518097 0.10024662
0.029779639 0.028938973 0.10155904
0.030431814 0.029096551 0.10193808
0.030214634 0.028431099 0.099430814
0.031321902 0.029013237 0.10128126
0.03358312 0.030629968 0.10672303
0.035721276 0.032087244 0.11158261
0.032582749 0.028831845 0.10006068
0.03074096 0.026802661 0.092826307
0.031172225 0.026785374 0.092569888
0.033161804 0.028088486 0.096862838
0.034937579 0.029176403 0.10039158
0.032551099 0.026806451 0.092028812
0.033401735 0.027130689 0.092928581
0.038668372 0.030984692 0.10588337
0.038643368 0.030552361 0.10416203
0.035761707 0.027902532 0.094904862
0.037448671 0.028839808 0.097862929
0.03748196 0.028495867 0.096470572
0.040861174 0.030672221 0.10359935
0.039600186 0.029354578 0.098924652
0.038825348 0.028425355 0.095581964
0.037431508 0.027071094 0.090834007
0.037838914 0.027036441 0.090532146
0.034626883 0.024447219 0.081703089
0.030881323 0.021546595 0.071877852
nan nan nan
0.049591128 0.033806369 0.11241145
0.048064422 0.03239372 0.10756535
0.047696885 0.031785239 0.1054171
0.046765454 0.030818662 0.1021061
0.044285554 0.028864047 0.095549688
0.040754709 0.026274346 0.086920448
0.040227305 0.025655778 0.084835723
0.039166424 0.024713736 0.081699945
0.046840556 0.029245287 0.096675247
0.058375612 0.036068041 0.11924592
0.063362181 0.038745884 0.1281423
0.060685743 0.036730975 0.12154245
nan nan nan
nan nan nan
nan nan nan
0.048811555 0.028386537 0.094297536
0.053792063 0.030979557 0.10305449
nan nan nan
0.065539196 0.037026644 0.12356879
nan nan nan
nan nan nan
nan nan nan
-0.052895974 0.027797196 0.093451768
-0.051986974 0.027559374 0.092404053
-0.044453904 0.02377468 0.079502881
-0.041694 0.022497917 0.075038195
-0.041165411 0.022412993 0.074566774
-0.03849439 0.021149434 0.070192203
-0.03583207 0.0198675 0.065784119
-0.035991248 0.020140709 0.066540584
-0.037927777 0.021422943 0.07062757
-0.045939624 0.026193356 0.086183049
-0.04608319 0.026525695 0.087114081
-0.047399316 0.027545866 0.090308167
-0.048497066 0.028457722 0.093149595
-0.056001794 0.03318394 0.10846346
-0.046002891 0.027529249 0.08986526
-0.039500359 0.023874599 0.077847727
-0.034800604 0.021246687 0.069212846
-0.040797487 0.025162371 0.081904687
-0.045993533 0.028659856 0.093233377
-0.047126997 0.029672381 0.096487425
-0.043452721 0.027647262 0.089882277
-0.043356441 0.027879795 0.090635657
-0.046399284 0.030157637 0.098057151
-0.04728264 0.0310662 0.101048
-0.043957248 0.029199053 0.095027782
-0.043152552 0.028983386 0.094396695
-0.041964706 0.028502634 0.092918023
-0.039577711 0.027187202 0.088729024
-0.039017815 0.027111035 0.088594854
-0.040841036 0.028708251 0.093950957
-0.041323118 0.02938927 0.096334308
-0.045490593 0.032738838 0.10750125
-0.047507904 0.034603115 0.11383539
-0.043036774 0.031729259 0.10458791
-0.037908841 0.028294131 0.093458347
-0.039832924 0.030102324 0.099645101
-0.042566057 0.032575514 0.1080709
-0.041249845 0.031973485 0.10631385
-0.03963311 0.031119831 0.10371324
-0.037255958 0.02963873 0.099006236
-0.037030399 0.029852627 0.09995278
-0.038040381 0.031081837 0.10431024
-0.040535755 0.033575095 0.1129379
-0.041625213 0.034957018 0.11785534
-0.035516303 0.030247442 0.10220752
-0.03469665 0.029972149 0.10150218
-0.034048699 0.029839333 0.10127248
-0.0345672 0.030739909 0.10455123
-0.034223322 0.030889049 0.10527689
-0.032987606 0.030225551 0.10322409
-0.033374749 0.0310515 0.10625347
-0.033579662 0.031731103 0.10878623
-0.033796825 0.032444067 0.1114362
-0.03270191 0.031900164 0.10976395
-0.032272648 0.0319984 0.1102921
-0.033041403 0.033307571 0.11499577
-0.032994743 0.033825263 0.11697051
-0.032009557 0.03338208 0.1156162
-0.030724406 0.032604985 0.11309241
-0.029079827 0.031411834 0.1091092
-0.027415192 0.030153152 0.10488041
-0.025651611 0.028736921 0.10008541
-0.025023844 0.028563621 0.09960676
-0.024295107 0.028266167 0.09868791
-0.023559278 0.027948616 0.097691268
-0.022956679 0.027779553 0.097206891
-0.022837592 0.028200634 0.098783709
-0.022574408 0.028457647 0.099783577
-0.022078725 0.028426277 0.099768482
-0.021686366 0.028529465 0.10022145
-0.021733509 0.029228322 0.10276506
-0.021229284 0.029200612 0.10275186
-0.020691779 0.029124774 0.10256485
-0.020311331 0.029271657 0.10315838
-0.019796586 0.029227447 0.10307486
-0.019486006 0.029490001 0.10406996
-0.019300265 0.029959852 0.10579464
-0.01876625 0.029899595 0.10564476
-0.018153507 0.029707242 0.10502423
-0.017353904 0.029189868 0.10325006
-0.016848981 0.029152706 0.10317039
-0.016466141 0.029330814 0.10384984
-0.016030135 0.029422177 0.10421974
-0.015671007 0.029664787 0.10512318
-0.015300395 0.029900663 0.10600084
-0.014575139 0.029436078 0.10439246
-0.013980731 0.029212743 0.10363638
-0.01346147 0.029136043 0.10339793
-0.013079429 0.029361684 0.10423041
-0.012669289 0.029539235 0.10489053
-0.012094051 0.029330652 0.10417753
-0.011744932 0.029675949 0.10543008
-0.01125425 0.029678091 0.10546201
-0.010855856 0.02993492 0.10639746
-0.01032137 0.029823098 0.10602108
-0.0098066591 0.029760042 0.10581643
-0.0092627658 0.029597076 0.1052549
-0.0087611321 0.029558463 0.10513412
-0.0083454167 0.02982231 0.10608796
-0.0080510648 0.030580336 0.10879896
-0.0074019069 0.030002 0.10675436
-0.006846 0.029745597 0.10585381
-0.0063670995 0.029809972 0.10609362
-0.0060159778 0.030533705 0.10867932
-0.0054905214 0.030424243 0.10829864
-0.004940948 0.030145515 0.1073144
-0.0043952819 0.029830651 0.10620046
-0.0038196058 0.029206563 0.10398463
-0.0033316985 0.029169919 0.10385936
-0.0029059814 0.02975769 0.10595664
-0.0024442063 0.030140892 0.10732491
-0.0019552 0.030298805 0.1078903
-0.0014455025 0.030134419 0.10730732
-0.00094434217 0.030068491 0.1070742
-0.0004434764 0.029875277 0.1063871
5.1296185e-05 0.029860711 0.1063355
0.00054459169 0.029791737 0.10608948
0.001032545 0.029635005 0.10553026
0.0015083421 0.029342795 0.10448795
0.002010033 0.029573971 0.1053087
0.0025228309 0.029845957 0.10627399
0.0030222484 0.029896464 0.10644989
0.0035044909 0.029786764 0.1060546
0.004009332 0.029872516 0.10635445
0.0045111883 0.029919636 0.10651588
0.0049089119 0.029335147 0.10442805
0.0054364381 0.029561758 0.1052268
0.0060546617 0.030203365 0.10750157
0.0065580183 0.030217767 0.10754275
0.0069770166 0.029868977 0.10629049
0.0073859002 0.029525947 0.10505788
0.0077437214 0.029034065 0.10329487
0.0081467927 0.028759437 0.10230397
0.0086878994 0.028975526 0.10305747
0.0093019018 0.029399378 0.10454825
0.0097744316 0.029356167 0.10437652
0.010196711 0.029173292 0.10370687
0.010624888 0.029023066 0.103152
0.011109863 0.029034281 0.1031694
0.011485029 0.028769502 0.10220464
0.011827334 0.028446781 0.10103276
0.012318142 0.028492276 0.10116707
0.012776967 0.028463168 0.10103455
0.013220588 0.028403461 0.10079151
0.013549968 0.028110858 0.099720307
0.014327588 0.028736724 0.10190465
0.014606842 0.028354907 0.10051297
0.015057179 0.028318655 0.10034437
0.01554847 0.028359281 0.10044566
0.016044898 0.02840662 0.10056794
0.016443649 0.028283257 0.10008325
0.016714549 0.027952908 0.098864056
0.017052669 0.02774976 0.098092742
0.017448911 0.027649371 0.097682215
0.017910954 0.027655719 0.097645774
0.018367425 0.027653364 0.097575307
0.018854516 0.027696099 0.097660415
0.019239403 0.027590238 0.097218148
0.019534826 0.027363971 0.096348815
0.020034041 0.02742696 0.096494593
0.020761026 0.027792064 0.097698122
0.021245064 0.027823158 0.097722232
0.021362344 0.027382813 0.096087612
0.021134825 0.02652799 0.092998557
0.021430045 0.026350753 0.092284106
0.022215838 0.026771769 0.093659505
0.022810692 0.026950711 0.094181195
0.023328129 0.027033079 0.094359636
0.025267616 0.02872921 0.10015855
0.024976229 0.027873021 0.097050689
0.023547489 0.025801685 0.089719869
0.026099121 0.028087854 0.097534984
0.027306214 0.028872307 0.10011506
0.027799603 0.028888104 0.10002013
0.02867417 0.029292768 0.10126359
0.028969321 0.029101893 0.1004413
0.029640693 0.029289035 0.10091782
0.029121231 0.028312385 0.097383298
0.031263616 0.029913595 0.10270586
0.033005513 0.031087631 0.10653854
0.034295492 0.031806476 0.10879304
0.032975312 0.030119471 0.10281915
0.032791812 0.02950551 0.1005186
0.032120597 0.028477188 0.096813008
0.032942981 0.028783647 0.097645849
0.035356604 0.03045186 0.10307965
0.036043651 0.030607002 0.1033744
0.034986567 0.029297324 0.098727457
0.037434485 0.030918378 0.10395178
0.037536796 0.03058451 0.10259191
0.038820907 0.031209625 0.10444592
0.03914056 0.031053139 0.10368105
0.040407501 0.031642519 0.10540477
0.041486762 0.032071713 0.10659011
0.040479988 0.030897819 0.10245753
0.037887935 0.028558316 0.094491407
0.034690239 0.025825625 0.085267358
0.035680775 0.026239516 0.08645606
0.03472003 0.025225744 0.082953289
0.032645579 0.023436541 0.076927543
0.03227948 0.022901416 0.075042062
0.04653303 0.032630503 0.10675335
0.047943771 0.033233784 0.10857249
0.044435069 0.030452009 0.099359632
0.044427227 0.030104935 0.098120943
0.049531292 0.03319107 0.1080823
0.048645157 0.032239463 0.10490894
0.051741086 0.033918973 0.11031705
0.047845058 0.031028043 0.10088215
0.045077212 0.028922418 0.094024219
0.049421005 0.03137606 0.10200783
0.05598291 0.035172205 0.11437955
0.062916286 0.039121144 0.12727886
nan nan nan
0.068762399 0.041893382 0.13649625
0.068048738 0.041044429 0.13386261
nan nan nan
0.04143345 0.024501568 0.080107599
0.046725146 0.027362807 0.089594103
nan nan nan
0.060677145 0.034857109 0.11451863
nan nan nan
nan nan nan
nan nan nan
-0.056114551 0.029976975 0.099278055
-0.053471662 0.028815918 0.095178999
-0.045747321 0.024871636 0.081932589
-0.041634247 0.022837754 0.075035729
-0.044394728 0.024571557 0.080526553
-0.042529371 0.023753317 0.07765305
-0.040792678 0.022992568 0.074987747
-0.044123352 0.025100386 0.081676275
-0.042161293 0.024208598 0.078604117
-0.046674766 0.02705327 0.087660827
-0.050579425 0.029595934 0.095715232
-0.047298852 0.027942736 0.090206347
-0.049754616 0.029679189 0.095652916
-0.052965887 0.031904813 0.10266973
-0.047228437 0.028730737 0.092328921
-0.041183386 0.025304107 0.081218451
-0.041748855 0.025910925 0.083078742
-0.043816179 0.027471768 0.088005647
-0.045410059 0.028764924 0.092083141
-0.046397928 0.029697172 0.095017441
-0.045330875 0.029319948 0.093778491
-0.048007499 0.031381883 0.10035821
-0.048959952 0.032349005 0.10345513
-0.051113691 0.034139536 0.10920681
-0.048382744 0.032671019 0.10455374
-0.04830122 0.032978792 0.1056038
-0.042496666 0.029341988 0.094033808
-0.038084932 0.02659506 0.08531484
-0.034735769 0.024535451 0.078799441
-0.035857219 0.025622446 0.082400128
-0.041943442 0.030324504 0.097666875
-0.045619652 0.033375483 0.10766895
-0.044430602 0.032897696 0.10631512
-0.037355386 0.027996736 0.090647265
-0.036990456 0.028065929 0.091051959
-0.037797175 0.029036956 0.094397776
-0.040544823 0.031542581 0.1027638
-0.039347619 0.031004163 0.10123261
-0.035583224 0.02840261 0.092946902
-0.03465002 0.02802214 0.091910921
-0.035889979 0.029412454 0.096692644
-0.038227994 0.031752452 0.10462561
-0.041581612 0.035011787 0.11563014
-0.041486032 0.035417162 0.11723574
-0.03822073 0.033089776 0.10977895
-0.032922726 0.028910793 0.096128166
-0.032676876 0.029111397 0.097006954
-0.033790596 0.030546974 0.10200902
-0.033961136 0.031160075 0.10427466
-0.034129009 0.031789307 0.106598
-0.032325789 0.030573672 0.10272589
-0.032610811 0.031325955 0.10545726
-0.032309413 0.031529889 0.10634311
-0.032043952 0.031776048 0.10736825
-0.033332933 0.033597045 0.11372089
-0.031817757 0.032605283 0.11055142
-0.031171327 0.032485209 0.11032476
-0.030588686 0.032428622 0.11030645
-0.03083666 0.03326609 0.11332705
-0.028884243 0.031717315 0.10820869
-0.028334312 0.031680208 0.10823374
-0.027064046 0.030821389 0.10544141
-0.025361376 0.029428355 0.10080572
-0.024594881 0.029088866 0.099766038
-0.023737052 0.028625892 0.098294385
-0.023096874 0.0284121 0.097670689
-0.022829963 0.028658122 0.098622978
-0.022596443 0.028957201 0.099755161
-0.021822251 0.028561397 0.098488607
-0.021792641 0.029144108 0.10059239
-0.021417046 0.029279759 0.10115106
-0.020887081 0.029205749 0.10098135
-0.020256594 0.028984452 0.10029743
-0.020133806 0.029496377 0.10214753
-0.020006867 0.030027112 0.10406157
-0.019491049 0.029986179 0.10399187
-0.019009808 0.029997703 0.10410034
-0.018521255 0.029997988 0.10416627
-0.017851442 0.029696753 0.10318118
-0.017279355 0.029545845 0.10271419
-0.016777676 0.029510118 0.10264417
-0.016339431 0.029587153 0.10296343
-0.0159263 0.029715732 0.10345951
-0.015451755 0.029734189 0.10356969
-0.015093299 0.029984467 0.10448505
-0.01465363 0.030084748 0.10487568
-0.013965085 0.029663332 0.10344478
-0.013388201 0.029457387 0.1027622
-0.01301464 0.029700123 0.10364265
-0.012627337 0.029929034 0.10447326
-0.012776017 0.031497739 0.10998043
-0.012166554 0.031250399 0.10914584
-0.011501982 0.03083373 0.10771731
-0.010870164 0.030470816 0.10647408
-0.010457556 0.030717054 0.1073576
-0.010012956 0.030889349 0.10798135
-0.0093417149 0.030343708 0.10609357
-0.0088264327 0.030271979 0.10586091
-0.0084408941 0.030663073 0.10724553
-0.0080168992 0.03095489 0.10828193
-0.0074254056 0.030595722 0.10703983
-0.0067852493 0.029969923 0.10486328
-0.0064480258 0.030688852 0.10739074
-0.0059619863 0.03076084 0.10765352
-0.0055102548 0.031039292 0.10863794
-0.0049764337 0.030864881 0.10803634
-0.0044346359 0.03059623 0.10710377
-0.0039068703 0.030368606 0.10631375
-0.0033804514 0.030086951 0.10533362
-0.0029031397 0.030220957 0.10580782
-0.0024653859 0.030905593 0.10820913
-0.0019579078 0.030843278 0.10799441
-0.001454961 0.030833963 0.10796446
-0.00095296686 0.030845657 0.10800727
-0.0004445152 0.030441215 0.10659216
5.159729e-05 0.030533448 0.10691544
0.00054765912 0.030455735 0.10664284
0.0010273994 0.029975703 0.10496078
0.0015020934 0.029705198 0.10401164
0.0020032004 0.029961582 0.10490662
0.0025014118 0.03008268 0.10532707
0.0030371242 0.0305412 0.10692804
0.0035539791 0.030707693 0.10750565
0.004015781 0.03041612 0.10647876
0.004536978 0.03058905 0.1070771
0.0049130283 0.029846003 0.10446826
0.0053360984 0.029496707 0.103237
0.0060411291 0.030634973 0.10721087
0.0065198317 0.030539369 0.10686526
0.0068921386 0.029994287 0.10494596
0.0073236292 0.029761897 0.1041199
0.0077443914 0.029517487 0.10325078
0.0082267467 0.029522682 0.10325366
0.0087009193 0.029499566 0.10315625
0.0091723865 0.029470176 0.1030355
0.0096195107 0.02936938 0.1026638
0.010074981 0.029302416 0.10240895
0.010614377 0.029474566 0.10298808
0.01108323 0.029444398 0.10285854
0.01146551 0.029196283 0.10196612
0.011921813 0.029148923 0.10177323
0.012336144 0.029006498 0.10124674
0.012784703 0.028952098 0.10102569
0.013125338 0.028665857 0.099993944
0.013584336 0.028648915 0.099899761
0.014094225 0.02873686 0.10016897
0.014561251 0.028734563 0.10012114
0.01493948 0.028562644 0.099480048
0.015426284 0.028602421 0.09957388
0.015865991 0.028555105 0.099361837
0.016299123 0.028498985 0.099116564
0.016558105 0.028149907 0.097850204
0.016890673 0.027941374 0.097070485
0.017383942 0.02800265 0.097225271
0.017977495 0.028218206 0.097911909
0.018481903 0.028286569 0.098083816
0.018732253 0.027972233 0.096925795
0.018954707 0.027632164 0.095676675
0.01939914 0.027623963 0.09557385
0.020047586 0.027900059 0.096450105
0.02084172 0.028362174 0.097963296
0.021439077 0.028542262 0.098496266
0.021087317 0.027477955 0.094733559
0.02135963 0.027254194 0.09386871
0.021986311 0.0274825 0.094556421
0.022458792 0.027512792 0.094557405
0.023178594 0.027838949 0.095569156
0.024692599 0.029088169 0.099738516
0.02543476 0.029398214 0.10067599
0.024969786 0.028327353 0.096882589
0.025416085 0.0283104 0.0966933
0.026360516 0.028839022 0.098359615
0.028672222 0.030818768 0.10495723
0.028939538 0.030570738 0.10395333
0.02868617 0.029790379 0.10113887
0.02890216 0.029515298 0.10003979
0.02894765 0.029077956 0.098389089
0.029418629 0.029075228 0.098205894
0.030676728 0.02983818 0.1005987
0.033576179 0.03214892 0.10818482
0.033378299 0.031468548 0.10568947
0.032218698 0.029915785 0.10027348
0.032371469 0.029609704 0.099043816
0.032003809 0.028843574 0.096278213
0.034214236 0.030389508 0.10122041
0.037233837 0.032599803 0.10834445
0.040617641 0.035062321 0.11626896
0.039732113 0.033822227 0.11190356
0.03805567 0.031952012 0.10547481
0.036319334 0.030082654 0.099076308
0.03743536 0.030594181 0.10052962
0.03919138 0.031608436 0.10362457
0.041128557 0.032740586 0.10709257
0.040120866 0.031529486 0.10290037
0.041523922 0.032219566 0.10492212
0.035489831 0.027193781 0.088367097
0.033820037 0.025594788 0.083000213
0.034454931 0.025757685 0.083364397
0.038319726 0.0283022 0.091429487
0.032339785 0.023601532 0.076111645
0.035605256 0.025679341 0.082679532
0.048935656 0.034883637 0.11215103
0.044849452 0.031603757 0.10147448
0.041894857 0.029186685 0.093607984
0.046292417 0.031888369 0.10217571
0.051235847 0.034901936 0.11174601
0.049961552 0.033660308 0.10770844
0.047654126 0.031757157 0.10157945
0.043637782 0.028768282 0.092001416
0.043560382 0.028412091 0.090862356
0.049136672 0.031712212 0.10143565
nan nan nan
nan nan nan
nan nan nan
0.068747796 0.042578187 0.13654722
nan nan nan
nan nan nan
nan nan nan
0.033414174 0.019891826 0.064130649
nan nan nan
nan nan nan
nan nan nan
nan nan nan
-0.034370396 0.018499158 0.060520183
nan nan nan
nan nan nan
-0.039619394 0.021890976 0.071060747
-0.035512667 0.019797236 0.064095154
nan nan nan
-0.038914658 0.022088544 0.071150862
-0.044396583 0.025431585 0.081721626
-0.044937477 0.025979998 0.083290443
-0.038621973 0.022537654 0.07209456
-0.040195893 0.023677612 0.075581819
-0.050359562 0.029947374 0.09540581
-0.047120474 0.028290888 0.089960732
-0.046522055 0.028203053 0.089526042
-0.047721531 0.029214127 0.092587553
-0.043718982 0.027029116 0.085538223
-0.040936176 0.025562005 0.080789961
-0.043665566 0.027542036 0.086948246
-0.047255635 0.030110938 0.094964705
-0.05221555 0.033614732 0.10592888
-0.046952855 0.030541979 0.09618441
-0.045324322 0.029793331 0.093783736
-0.045916803 0.03050424 0.095995218
-0.048085786 0.032289051 0.10160311
-0.051802274 0.035163153 0.11065836
-0.05034722 0.034551453 0.10876522
-0.046377037 0.032180898 0.10135186
-0.043575276 0.030576902 0.096364774
-0.036778312 0.026101062 0.082329243
-0.032796178 0.023542846 0.074336685
-0.035824899 0.026016423 0.082245901
-0.043840829 0.03221269 0.10197324
-0.043786753 0.032556444 0.10321777
-0.041445751 0.031187594 0.099041656
-0.034118444 0.025987348 0.082674399
-0.031633843 0.024392722 0.077748328
-0.041947074 0.032750051 0.10459398
-0.041854877 0.03309226 0.10590603
-0.037670888 0.030166578 0.096749626
-0.035210434 0.028562946 0.091807507
-0.032679196 0.026858872 0.086523086
-0.034406904 0.028656444 0.092522383
-0.037825 0.031929586 0.10332467
-0.039644536 0.033924613 0.11003041
-0.039887808 0.034607533 0.11249994
-0.037126571 0.032666173 0.10642809
-0.034241557 0.030558802 0.099783756
-0.033113837 0.029981313 0.098112799
-0.033236533 0.030535618 0.10014214
-0.033431221 0.031173615 0.10245042
-0.032031555 0.030321732 0.099856503
-0.035170309 0.033805963 0.11155511
-0.032329358 0.031561557 0.10435304
-0.03099744 0.030742403 0.10183828
-0.031567033 0.031813111 0.10557987
-0.031622201 0.03239204 0.10769354
-0.03085101 0.032129683 0.10700616
-0.029612236 0.031363193 0.10462799
-0.029332664 0.031603687 0.10560033
-0.029717369 0.032580927 0.10903479
-0.032208078 0.035943374 0.12046742
-0.028788701 0.032712676 0.10979714
-0.028098386 0.032520667 0.10930349
-0.026243508 0.030948075 0.10415588
-0.024911635 0.029943526 0.10090322
-0.02415223 0.029601116 0.099870928
-0.023415005 0.029272715 0.09887816
-0.022884032 0.029193999 0.098722324
-0.021929054 0.028559791 0.096680723
-0.022238635 0.029580576 0.10023835
-0.021943858 0.029824447 0.10116303
-0.02153231 0.02991694 0.1015709
-0.020774912 0.029522177 0.10031926
-0.020341551 0.029580213 0.10060112
-0.020199008 0.030074025 0.10236248
-0.020043327 0.030571932 0.1041365
-0.019466437 0.030436242 0.10374936
-0.019010045 0.030486809 0.10399319
-0.018349817 0.030204529 0.10309751
-0.017780105 0.030059978 0.10266756
-0.017336352 0.030126255 0.10295419
-0.017024111 0.030431421 0.10405473
-0.016375415 0.030135417 0.10309663
-0.015835075 0.030026887 0.10277622
-0.015339356 0.029998809 0.10272814
-0.014997903 0.030280376 0.10373808
-0.014510213 0.030275658 0.10376503
-0.013910255 0.030028252 0.10295736
-0.013321197 0.029787488 0.10216945
-0.012993853 0.030135795 0.10339987
-0.012846775 0.030945228 0.10621156
-0.012424105 0.031129176 0.1068754
-0.012305736 0.032122862 0.11031841
-0.011548575 0.03146302 0.10808109
-0.010920255 0.031109959 0.10689481
-0.010742099 0.032066911 0.11020843
-0.010123826 0.031740203 0.1091091
-0.0095380405 0.031486165 0.10825749
-0.0089874547 0.031326432 0.10772826
-0.0085035972 0.031394135 0.10797959
-0.0080379276 0.031541731 0.10850443
-0.0073801638 0.030904748 0.10632863
-0.0068451255 0.030726975 0.10573112
-0.0062786923 0.030369783 0.10451476
-0.0060056532 0.031490963 0.10838521
-0.0054718452 0.031325102 0.10782513
-0.0049661198 0.031302728 0.10775778
-0.0044578277 0.031257324 0.10761012
-0.0039648493 0.031321399 0.10783831
-0.0034708076 0.031394433 0.1080964
-0.0029878828 0.031609848 0.10884386
-0.0024112684 0.030719658 0.10578326
-0.0019206341 0.03074904 0.1058882
-0.0014427751 0.031073863 0.10700969
-0.00094778254 0.031177659 0.1073692
-0.00044931108 0.031270951 0.10769168
5.2005478e-05 0.031276397 0.10771077
0.0005534559 0.031279542 0.10772108
0.0010310584 0.030572565 0.10528503
0.0015074345 0.03029651 0.10433219
0.0020039093 0.030460501 0.10489388
0.0024922469 0.03046078 0.10489092
0.0029658224 0.030310096 0.10436727
0.0035587437 0.031249832 0.10759722
0.0040923376 0.031500962 0.10845503
0.0045049959 0.030868277 0.10626903
0.0049012061 0.030259274 0.10416389
0.0055257343 0.031042617 0.10685065
0.0060447562 0.031152776 0.10721885
0.0064761224 0.030828845 0.10609199
0.0068675731 0.030374311 0.10451482
0.0073051276 0.030170379 0.10379899
0.0077949776 0.03019434 0.10386606
0.0083085159 0.030301889 0.10421925
0.0087858178 0.030272707 0.10410073
0.0091911592 0.030011605 0.1031834
0.0095926439 0.029764514 0.10231309
0.010196255 0.030138284 0.10357524
0.010705075 0.03021073 0.10379983
0.011050881 0.029836772 0.10248914
0.011542222 0.029870482 0.10257725
0.011926694 0.029635949 0.10174249
0.01234415 0.02949821 0.1012384
0.01269003 0.029205902 0.10020225
0.013120287 0.029121678 0.099878319
0.013534007 0.029007798 0.09945067
0.014027086 0.029065927 0.099610493
0.014545542 0.02917121 0.099929228
0.014956909 0.029061859 0.099510208
0.015327764 0.028882774 0.098850206
0.015803119 0.02890533 0.098877855
0.016182592 0.028756224 0.098315634
0.016322743 0.02820188 0.096366331
0.016591294 0.027893286 0.095255442
0.017152136 0.028079392 0.095831051
0.018086897 0.028852463 0.098404542
0.018569423 0.028883556 0.098442174
0.018472709 0.028034082 0.095477089
0.018752055 0.027782116 0.094546154
0.019329442 0.027973155 0.095119268
0.020023946 0.028321179 0.096220843
0.020650573 0.028559899 0.096945301
0.021176508 0.02865202 0.097167
0.021224273 0.028107002 0.09522514
0.021337917 0.027670067 0.093648493
0.02184464 0.027750282 0.093818918
0.022926122 0.028542858 0.09638992
0.023597768 0.028804164 0.097157963
0.024408802 0.029222319 0.098447368
0.025695657 0.030183645 0.10155573
0.026113326 0.030107308 0.10116357
0.026374189 0.029856239 0.10018037
0.027739352 0.03084193 0.10333792
0.029264063 0.031967387 0.10694759
0.029895289 0.03209487 0.10720623
0.029216317 0.030835254 0.10283166
0.026623497 0.027631253 0.091991834
0.028886421 0.029489201 0.098006628
0.029637229 0.029768497 0.098756924
0.029090988 0.02875679 0.095223516
0.028703228 0.027930863 0.092311665
0.031269919 0.029961104 0.098826751
0.031537287 0.029760165 0.097965606
0.032156192 0.029891994 0.098195806
0.03377923 0.03093968 0.1014223
0.035660449 0.032190096 0.10529342
0.036974717 0.032900367 0.10738038
0.040739533 0.035740495 0.11639031
0.039692737 0.034339212 0.11157537
0.037282806 0.0318131 0.10313337
0.032654699 0.027487962 0.088909544
0.033655185 0.027952932 0.09020859
0.036675148 0.030060967 0.096793249
0.038565725 0.031200612 0.10023959
0.042170405 0.033680066 0.10796957
0.036019702 0.028404037 0.090862587
0.034266252 0.026683992 0.085184984
0.034478929 0.026518559 0.084490232
0.037074696 0.028167717 0.089576952
0.038145952 0.028632872 0.090896495
0.036881186 0.02735436 0.086696669
0.035280537 0.025859702 0.08183787
0.042373881 0.030698223 0.097020976
0.03824085 0.027385945 0.086451538
0.041907821 0.029671378 0.093572922
0.048512131 0.033961859 0.10701612
0.054820567 0.03795227 0.11951462
0.046560816 0.031880222 0.10034874
0.039831314 0.026976423 0.084891595
0.038259618 0.025633652 0.080660947
0.045094606 0.029891979 0.094072379
0.055917565 0.036676474 0.11545981
0.055400413 0.035959173 0.11325787
nan nan nan
0.046133418 0.029333713 0.09253107
nan nan nan
nan nan nan
nan nan nan
nan nan nan
nan nan nan
nan nan nan
nan nan nan
nan nan nan
nan nan nan
nan nan nan
nan nan nan
-0.046287108 0.025756953 0.082629994
-0.038675111 0.021711802 0.069469564
nan nan nan
nan nan nan
-0.033532139 0.019338474 0.061396614
-0.038977388 0.022685252 0.071845517
-0.039632939 0.02328058 0.07355684
-0.033719663 0.019992381 0.06302461
-0.034102876 0.02041053 0.064203992
-0.039481808 0.023855077 0.074885853
-0.040857732 0.024924025 0.078090742
-0.042216484 0.026003173 0.081325091
-0.041443396 0.025777509 0.080484651
-0.038482666 0.024173189 0.075359851
-0.03966378 0.025164526 0.078341432
-0.039751347 0.025475094 0.079210177
-0.04522755 0.029280657 0.090944543
-0.050927114 0.03331086 0.10336739
-0.053212866 0.035168905 0.10905153
-0.04565075 0.030488964 0.094485834
-0.040740263 0.027499158 0.085186809
-0.043282852 0.029529864 0.091458187
-0.051394656 0.035445735 0.10977765
-0.05240643 0.036541168 0.11318857
-0.051231492 0.03611929 0.11192084
-0.045183435 0.032213625 0.099872023
-0.039951574 0.028807614 0.089376591
-0.034292188 0.025011396 0.077668406
-0.038524393 0.028425319 0.08836434
-0.038952097 0.029079445 0.090509623
-0.044029538 0.033261769 0.10367132
-0.0411328 0.031448297 0.098169856
-0.03843056 0.029741062 0.092995733
-0.038614858 0.030253094 0.094766304
-0.042569134 0.033768531 0.10597901
-0.043362875 0.034834173 0.10954098
-0.039492503 0.032132301 0.10125348
-0.036693793 0.030243443 0.095504425
-0.036980949 0.03088172 0.097732551
-0.036738764 0.031089105 0.098606758
-0.039061587 0.033502042 0.1064977
-0.038803723 0.033737425 0.10748707
-0.036987804 0.03260589 0.10411558
-0.035435688 0.031678259 0.10137995
-0.033740811 0.030594643 0.098129451
-0.032987967 0.030346157 0.097546041
-0.035367042 0.033013891 0.10635071
-0.033397678 0.031641584 0.10214637
-0.034493569 0.033175781 0.10732188
-0.035510667 0.034680311 0.11241703
-0.035996415 0.035704881 0.11596766
-0.031769667 0.03201339 0.10417852
-0.030642267 0.031376194 0.10229636
-0.030224549 0.03145669 0.1027453
-0.029878246 0.031615436 0.10344569
-0.030006273 0.032290004 0.10583285
-0.029657623 0.032466061 0.10658497
-0.030166427 0.033603452 0.11049414
-0.030170562 0.034209322 0.11265843
-0.02992473 0.034548666 0.11394354
-0.028423017 0.033423763 0.1103897
-0.027675536 0.033160023 0.10966771
-0.026017169 0.031773694 0.10522015
-0.024472095 0.03047397 0.10104255
-0.023740498 0.030155435 0.10010649
-0.022909334 0.029694812 0.0986908
-0.022547729 0.029836299 0.099270202
-0.022116119 0.029889213 0.099550948
-0.021886883 0.030223891 0.10076693
-0.02153866 0.030405508 0.10146981
-0.021309661 0.030767536 0.10277207
-0.020575173 0.030399594 0.10163178
-0.020212268 0.030576203 0.1023073
-0.019880773 0.03081012 0.1031717
-0.019447571 0.030894194 0.10353123
-0.018926717 0.030839777 0.10342295
-0.018268751 0.030553164 0.10253154
-0.017728407 0.030453064 0.10226171
-0.017464168 0.030834891 0.10360736
-0.017099448 0.031056099 0.10441127
-0.016439751 0.030738818 0.10340143
-0.015772928 0.030388514 0.10227628
-0.015483953 0.03076704 0.10360123
-0.015122482 0.031021358 0.10450617
-0.014525439 0.030793287 0.10378335
-0.01392691 0.030546168 0.10299309
-0.013343705 0.030316154 0.10225739
-0.013061382 0.030778036 0.10385339
-0.012761631 0.031232929 0.10542466
-0.012356965 0.03145729 0.10621633
-0.01175923 0.031188356 0.10534023
-0.011165579 0.03090724 0.10442039
-0.010712014 0.031005926 0.10478165
-0.010521703 0.031912517 0.10787215
-0.010173382 0.032406893 0.1095686
-0.0095921373 0.032172367 0.10879906
-0.0090270508 0.031968858 0.10813245
-0.0085491119 0.032068148 0.10848835
-0.0079822494 0.031825393 0.10768551
-0.0074151345 0.031548969 0.10676702
-0.0068487315 0.031236008 0.10572319
-0.006422325 0.03156253 0.10684249
-0.0058392524 0.031109286 0.10532089
-0.0053818068 0.031303566 0.1059902
-0.0049149483 0.031476833 0.10658729
-0.0044517871 0.031715386 0.10740449
-0.0039712992 0.031875286 0.10795433
-0.0034623526 0.031820018 0.10777439
-0.0029194201 0.031380694 0.10629252
-0.0023982087 0.031043079 0.10515402
-0.0018682287 0.030389529 0.10294423
-0.0014271322 0.031229703 0.1057935
-0.00094449334 0.031567544 0.10694022
-0.00044157251 0.031225042 0.10578122
5.1072264e-05 0.031207556 0.10572236
0.00054527179 0.031311035 0.10607234
0.0010328614 0.031116996 0.10541353
0.0015050307 0.030733112 0.10411067
0.0020009801 0.03090358 0.10468481
0.0024612427 0.030564081 0.10353055
0.0029312158 0.030436659 0.10309374
0.0034565821 0.030839326 0.1044514
0.0040242281 0.031473275 0.10659119
0.0045263409 0.031511728 0.10671294
0.0050164359 0.031467177 0.10655253
0.0055154637 0.031481646 0.10659083
0.00600693 0.031454124 0.10648579
0.0064533036 0.031212702 0.10565549
0.0068391114 0.030733347 0.10401884
0.0072799386 0.030548345 0.10337746
0.0077769491 0.030607436 0.10356083
0.0083321817 0.030875357 0.10444919
0.0088189393 0.030873964 0.10442483
0.0092851836 0.03080466 0.1041693
0.0097444234 0.030720169 0.1038609
0.010348606 0.031078978 0.10504933
0.010589714 0.030364262 0.10260772
0.0110162 0.030219952 0.10209253
0.011535187 0.030330842 0.10243764
0.012023462 0.030355355 0.10248893
0.012400739 0.030108493 0.10162211
0.012778043 0.029879911 0.1008154
0.013225504 0.029825814 0.10059551
0.01351747 0.029436812 0.099244334
0.014015118 0.029506687 0.099438272
0.014524822 0.029596638 0.099697106
0.014921138 0.029457135 0.099180527
0.015206533 0.029113697 0.097975366
0.015641853 0.029069019 0.097773537
0.015936341 0.028772615 0.09672273
0.016172346 0.028389974 0.095380388
0.016608024 0.028369028 0.095250972
0.017253075 0.028697429 0.096290685
0.018218406 0.029528148 0.099009909
0.018676654 0.029516054 0.098897718
0.018113609 0.027929798 0.093511485
0.018488728 0.027831104 0.093106501
0.019387823 0.028507436 0.095288984
0.019836117 0.028505282 0.095197767
0.02034446 0.028587604 0.095384412
0.020886645 0.028712869 0.095709547
0.02121719 0.02854806 0.095063634
0.021228487 0.027969472 0.093038112
0.022061262 0.028474746 0.094613716
0.023861334 0.030183434 0.10017493
0.023155063 0.028716885 0.095192254
0.024370724 0.029644465 0.098142944
0.026377747 0.03148159 0.10408786
0.026190892 0.03068083 0.10130124
0.026914084 0.030955844 0.10206351
0.028169667 0.031822477 0.10476533
0.028690733 0.031843528 0.10467323
0.027354507 0.02983794 0.097924016
0.025603317 0.027455242 0.089955218
0.027517593 0.029017029 0.094909504
0.030430797 0.031563818 0.10305687
0.031463236 0.032109216 0.10464605
0.030240329 0.030372145 0.098798469
0.028683865 0.028359486 0.092072755
0.029482409 0.028701266 0.092997007
0.029727025 0.028501615 0.092161812
0.031178389 0.029447671 0.095022403
0.035289608 0.032841265 0.10574753
0.03765304 0.034533657 0.11095633
0.037029933 0.033477712 0.10732745
0.036366466 0.032415498 0.10369135
0.038946677 0.03423392 0.10926325
0.03677842 0.031885814 0.1015405
0.032503422 0.027799245 0.088328354
0.034057431 0.028740499 0.091115534
0.037858587 0.031528436 0.099733844
0.040535785 0.033320166 0.10517336
0.037302095 0.030269511 0.095342159
0.035789665 0.028675077 0.090135045
0.036030114 0.028507352 0.089431435
0.037643079 0.029416317 0.092110068
0.036938291 0.028513983 0.089127026
0.037113778 0.028304705 0.088327572
0.03650393 0.027508587 0.085713819
0.037197053 0.02770154 0.086197659
0.032097165 0.023625914 0.073427342
0.032961834 0.023983832 0.074462548
0.037220959 0.026775476 0.083058178
0.045407131 0.032297742 0.10012015
0.04858987 0.034178022 0.10589625
0.049736228 0.034600362 0.10717156
0.038388487 0.026416041 0.081811316
0.038898274 0.026479343 0.082012638
nan nan nan
nan nan nan
nan nan nan
0.037126537 0.024232181 0.075208478
0.042009015 0.02713944 0.084311798
0.047507785 0.030382162 0.094490886
nan nan nan
nan nan nan
nan nan nan
nan nan nan
nan nan nan
nan nan nan
nan nan nan
nan nan nan
nan nan nan
nan nan nan
-0.041339271 0.023366628 0.073904283
-0.036229774 0.020659929 0.065174311
-0.035870813 0.020638036 0.064934224
-0.034038678 0.019760525 0.062011037
-0.034624726 0.020283649 0.06348981
-0.033337079 0.019708669 0.061536629
-0.037742831 0.022520125 0.070145927
-0.03894626 0.023455566 0.072890945
-0.045151986 0.027449781 0.085115053
-0.042567637 0.026125357 0.080838107
-0.043263603 0.026808064 0.082785666
-0.036740728 0.022987453 0.070854656
-0.032860454 0.020761466 0.063881963
-0.040148143 0.025617288 0.078696169
-0.042785522 0.027573397 0.084580712
-0.036118489 0.023512153 0.072027296
-0.040576287 0.026683874 0.08164756
-0.046066925 0.030607292 0.093557194
-0.048310388 0.032432586 0.099051915
-0.044353738 0.030090114 0.091834836
-0.038934756 0.026695117 0.081431665
-0.036612529 0.025373137 0.077373229
-0.045778748 0.032070719 0.097782001
-0.051211089 0.036271095 0.11059216
-0.053764164 0.038502943 0.11742245
-0.050259527 0.036398005 0.11104738
-0.039261054 0.028756384 0.087784529
-0.037553392 0.027822154 0.084997341
-0.036195643 0.027128434 0.082955651
-0.040527936 0.030733258 0.094082646
-0.035906725 0.027553443 0.084455118
-0.040302627 0.031299762 0.096073955
-0.039287806 0.030884204 0.09494587
-0.038028494 0.030263791 0.093195155
-0.039162941 0.031556699 0.09735126
-0.040834457 0.033320621 0.10298806
-0.039686158 0.032799337 0.10157814
-0.038642094 0.032351773 0.10039824
-0.038559772 0.032708205 0.10171921
-0.038477056 0.03307382 0.10307856
-0.038876973 0.033869803 0.10579086
-0.037806101 0.033388685 0.10451894
-0.03618677 0.03240307 0.10165899
-0.034947623 0.031734888 0.099783711
-0.034857549 0.032105953 0.10117344
-0.034357999 0.032105163 0.10139245
-0.034996297 0.033183251 0.10502385
-0.034523979 0.033224743 0.10537913
-0.034593966 0.03379732 0.10741933
-0.036435232 0.036144692 0.11511537
-0.034622755 0.0348842 0.11132329
-0.03340574 0.034193136 0.10933089
-0.030258546 0.031472143 0.10082181
-0.030081637 0.031801932 0.10206632
-0.030618407 0.032909822 0.1058111
-0.030952109 0.033833366 0.10896907
-0.030815199 0.034265507 0.11054598
-0.029760312 0.033674132 0.10881413
-0.028995562 0.033395767 0.10808336
-0.027677802 0.032458726 0.105209
-0.027464507 0.032806188 0.10648952
-0.027439872 0.033396404 0.10855671
-0.02692442 0.033400495 0.10871566
-0.02541675 0.032149687 0.10477921
-0.02419566 0.031218505 0.10187016
-0.023491973 0.030930467 0.10104986
-0.022743408 0.030570075 0.099985823
-0.022193521 0.030467067 0.099757202
-0.021708535 0.030450597 0.099806927
-0.021519221 0.030857377 0.10124069
-0.0211505 0.031019563 0.10186939
-0.020602902 0.030920858 0.10163722
-0.020331582 0.031241974 0.10278145
-0.019673808 0.030970447 0.10197206
-0.01928159 0.031113813 0.10252444
-0.018796094 0.031110164 0.10258895
-0.018116945 0.030777346 0.10156349
-0.017682971 0.030854281 0.10188607
-0.017379483 0.031169526 0.10299302
-0.017047528 0.03145032 0.10398404
-0.016317001 0.030990679 0.1025234
-0.015903506 0.031123534 0.10301916
-0.015565943 0.031417973 0.10404754
-0.015293559 0.031867292 0.10558717
-0.014597822 0.031435017 0.10420308
-0.013885346 0.030935531 0.10259209
-0.013633728 0.031463798 0.10438695
-0.013280464 0.031788047 0.10550363
-0.012619157 0.031371538 0.10415926
-0.01212999 0.031366702 0.10417896
-0.011540473 0.031091098 0.10329689
-0.011021757 0.030990509 0.10299383
-0.010719033 0.031515785 0.1047692
-0.010367081 0.031939663 0.10620642
-0.010059079 0.032548364 0.10825727
-0.0094982004 0.03235995 0.10765539
-0.008888403 0.031974502 0.10639589
-0.0083364425 0.031763799 0.10571577
-0.0079257963 0.032098904 0.1068507
-0.0074395766 0.032152388 0.1070469
-0.006940532 0.03215415 0.10706947
-0.0062899496 0.031399701 0.1045722
-0.0057486296 0.031109709 0.10361993
-0.0052750381 0.031166652 0.10382184
-0.004862166 0.031630103 0.10537688
-0.0044051809 0.031878524 0.10621458
-0.0039068703 0.031852927 0.10613821
-0.0033764634 0.031520277 0.10503746
-0.0028818082 0.031465154 0.10486035
-0.0023650047 0.031096296 0.10363654
-0.0018789471 0.031046119 0.10347371
-0.0014226321 0.031622417 0.10539791
-0.00093332911 0.031686589 0.10561421
-0.00043675257 0.031371504 0.10456541
5.0641978e-05 0.031432878 0.10477037
0.00053433317 0.031167025 0.10388363
0.0010139181 0.031028256 0.10341951
0.0015006287 0.031126713 0.10374508
0.0020017971 0.031404 0.10466562
0.0024755436 0.031226721 0.10407016
0.0029310263 0.030914893 0.10302529
0.0034235353 0.031026416 0.10339024
0.0040043779 0.031812172 0.10600065
0.0045191445 0.031958032 0.10647749
0.0049625793 0.03162051 0.1053427
0.0054624649 0.031671077 0.1054997
0.0059351586 0.031568665 0.10514587
0.0064285398 0.031583514 0.10518134
0.0068524028 0.031278934 0.10415184
0.0073054843 0.031139227 0.1036702
0.0077871177 0.031131012 0.10362497
0.0083421022 0.031399854 0.10450032
0.0087688779 0.031183077 0.1037579
0.0092022717 0.031011291 0.10316387
0.0098244688 0.031461205 0.10463611
0.010073752 0.030730879 0.1021815
0.010439397 0.030405546 0.10107261
0.010920338 0.030429645 0.1011237
0.011558542 0.030871782 0.10256156
0.012074712 0.030965738 0.1028401
0.012525474 0.030891182 0.10255681
0.012899619 0.030640142 0.10168575
0.013061402 0.029920498 0.09925849
0.01344943 0.029750763 0.098654293
0.013941888 0.029815638 0.098825775
0.014546781 0.030109068 0.099751681
0.014844598 0.029768424 0.098574363
0.015219104 0.0295975 0.097957119
0.015506446 0.029272061 0.096826538
0.015790364 0.028958879 0.095734775
0.016323309 0.029107105 0.096165687
0.016800251 0.029150166 0.096245609
0.01740342 0.029404242 0.097018331
0.018174563 0.02992186 0.098655432
0.01870689 0.030030303 0.098938353
0.018575165 0.029093392 0.095775694
0.018915938 0.028923456 0.095137142
0.019354206 0.02890702 0.0950002
0.020097945 0.029337233 0.096325956
0.020572061 0.029363524 0.096319988
0.020988436 0.029308045 0.096041687
0.021325437 0.029146438 0.095411994
0.021610735 0.028922353 0.094574727
0.022529293 0.02953765 0.096476205
0.023007078 0.029562032 0.096440546
0.023384681 0.029459247 0.095985562
0.026050324 0.032187495 0.10473876
0.026930876 0.03264888 0.10609662
0.025287643 0.030090125 0.09764421
0.026559126 0.031029558 0.10054567
0.028411252 0.032601789 0.10548
0.028236827 0.031834222 0.10283463
0.026023211 0.028833652 0.092990078
0.024971882 0.027200647 0.087575622
0.026505167 0.02839043 0.091246977
0.029951975 0.031557348 0.10124306
0.031271428 0.032417003 0.10380827
0.031196054 0.031826396 0.10172265
0.030527251 0.030658243 0.097797111
0.028988162 0.028665377 0.091256499
0.028874036 0.028120587 0.08933834
0.028719418 0.027553182 0.087352298
0.034428991 0.032545894 0.10296074
0.037957005 0.035361718 0.11162666
0.037105992 0.034075771 0.10733181
0.036915366 0.033423942 0.10504629
0.036318645 0.032427594 0.10168908
0.036012273 0.031714205 0.099231593
0.032491636 0.028227624 0.088127531
0.036621798 0.031392142 0.097793289
0.039181307 0.033144832 0.10303145
0.040395491 0.033728752 0.10462629
0.038797829 0.031980004 0.098999307
0.039009582 0.03174806 0.098088205
0.039659355 0.031873938 0.098292455
0.039598018 0.031432252 0.096758634
0.039049514 0.030619321 0.094100177
0.036416743 0.028211322 0.086567611
0.036226962 0.027730612 0.084974788
0.033587497 0.025408078 0.077762
0.032570023 0.024352241 0.07445085
0.030637866 0.022644594 0.069167838
0.032046791 0.0234171 0.071475618
0.038218766 0.027613634 0.084238723
nan nan nan
0.04076945 0.028809885 0.087840699
0.036851026 0.025758181 0.078536697
0.040888753 0.028273501 0.086222328
nan nan nan
nan nan nan
nan nan nan
0.044378687 0.02942262 0.089953817
0.050158501 0.032915603 0.10073873
0.047139183 0.030622095 0.093832627
nan nan nan
0.047693677 0.030369416 0.093324818
0.04746525 0.029927947 0.092119098
nan nan nan
nan nan nan
nan nan nan
nan nan nan
nan nan nan
nan nan nan
nan nan nan
-0.036290579 0.020831529 0.064970933
-0.041391805 0.023970192 0.074571803
-0.042598121 0.02488924 0.077229612
-0.04296957 0.025332663 0.078400269
-0.036295909 0.021592926 0.066654138
nan nan nan
nan nan nan
-0.044657279 0.027312815 0.083695598
-0.049086813 0.030305466 0.092656426
-0.045763761 0.028523212 0.087019376
-0.041423615 0.026066625 0.079361998
-0.033735953 0.02143533 0.065135531
-0.035187654 0.022577135 0.068480872
-0.04031064 0.026120493 0.079095103
-0.04419598 0.028924795 0.087450892
-0.039948322 0.026409207 0.079732545
-0.034264389 0.022883033 0.068999119
-0.039941881 0.026949966 0.08117152
nan nan nan
-0.041771304 0.028778335 0.086526677
-0.043067671 0.029987473 0.090105653
-0.039379802 0.027714819 0.083239034
-0.036809184 0.026187561 0.078630246
-0.046471547 0.033425499 0.10035285
-0.052585807 0.038244028 0.11482894
-0.052930787 0.038927961 0.11691338
-0.043817181 0.032591976 0.097927973
-0.041059278 0.030892067 0.092878282
-0.043254439 0.032922525 0.099062115
-0.040140439 0.030912222 0.093103431
-0.038058277 0.029658096 0.089427389
-0.038782947 0.030587403 0.092348322
-0.038801525 0.030975727 0.093654796
-0.036523398 0.029517494 0.089385748
-0.035965893 0.029430734 0.089273639
-0.039637387 0.032846216 0.09981323
-0.041295517 0.034659557 0.10552322
-0.040190294 0.034170609 0.10424025
-0.03874626 0.03337691 0.10202727
-0.038119096 0.033275086 0.10192962
-0.037355073 0.03304942 0.10145515
-0.03499632 0.031387292 0.096561886
-0.034927465 0.03176124 0.09792611
-0.035339821 0.032589503 0.10070029
-0.036302909 0.033956598 0.10515445
-0.036276616 0.034424517 0.10683571
-0.033361748 0.032124743 0.099913597
-0.033055473 0.032305632 0.10069031
-0.034696668 0.034424189 0.10751855
-0.034605738 0.034863029 0.10911345
-0.03378123 0.034565017 0.10839891
-0.031173151 0.032403551 0.10182066
-0.030703949 0.032431461 0.10210416
-0.029402599 0.031566896 0.099568106
-0.029975675 0.032719444 0.103391
-0.030006027 0.033308681 0.10543846
-0.029247781 0.033027757 0.10472771
-0.028727811 0.033010755 0.1048467
-0.026549045 0.031052949 0.098785825
-0.025575928 0.030459676 0.097047754
-0.02608371 0.031640794 0.10096058
-0.027322156 0.033769663 0.10790756
-0.026900595 0.03388929 0.10843884
-0.02670336 0.03430178 0.10990392
-0.025472375 0.033376291 0.1070745
-0.024071613 0.032185938 0.10338166
-0.023223707 0.031700537 0.10194159
-0.022438604 0.031281985 0.10070835
-0.021892993 0.031186346 0.10050818
-0.021474963 0.031272233 0.10088847
-0.021046644 0.031346712 0.10122801
-0.020681128 0.031520378 0.10188431
-0.019981002 0.031180181 0.10087495
-0.019547524 0.031249624 0.10118599
-0.018961329 0.031072289 0.10069375
-0.018407185 0.030939704 0.10034194
-0.017933952 0.030939713 0.10041613
-0.017628698 0.031237369 0.1014535
-0.017307907 0.031523321 0.10245068
-0.01693565 0.031729233 0.10318542
-0.016539169 0.031900574 0.10380518
-0.015857102 0.031514756 0.1026084
-0.015672535 0.032124475 0.10465029
-0.015352026 0.03248601 0.10588239
-0.014734039 0.032221183 0.1050703
-0.014059525 0.031810138 0.10377757
-0.013586487 0.031841811 0.10392597
-0.013080475 0.031795684 0.10381792
-0.012505965 0.031573061 0.10313082
-0.0118726 0.031177999 0.10187738
-0.011469286 0.031379279 0.10257009
-0.011062567 0.031588417 0.10328686
-0.010622306 0.031716507 0.10373688
-0.010112057 0.031637877 0.10350888
-0.009885177 0.032482497 0.1063002
-0.0093917726 0.03249437 0.1063652
-0.008656905 0.031625457 0.10354462
-0.0081530977 0.031547751 0.10331219
-0.0078498824 0.032285277 0.10574825
-0.0075136134 0.032976758 0.10803281
-0.0069053737 0.032488186 0.10645007
-0.0062916079 0.031895842 0.10452525
-0.0057353089 0.03151973 0.10330719
-0.0052810726 0.031686977 0.10386854
-0.0048586945 0.032098483 0.10522953
-0.0043709916 0.032122433 0.10531883
-0.0038590047 0.031951383 0.10476749
-0.0033645856 0.031897277 0.10459837
-0.002873396 0.031860627 0.10448529
-0.0023829462 0.031818885 0.10435431
-0.0019110335 0.032066762 0.10517213
-0.0014071738 0.03176466 0.10418499
-0.00092142727 0.031768434 0.10419993
-0.00043552174 0.031769019 0.10420338
5.0019629e-05 0.031528842 0.10341599
0.00053026981 0.031410448 0.10302702
0.0010051936 0.031239081 0.10246324
0.0014985312 0.031566024 0.10353279
0.0020095103 0.032014679 0.10500038
0.0025210825 0.032295123 0.10591505
0.0029590738 0.031695526 0.10394246
0.0034872175 0.032094449 0.1052433
0.00400974 0.032349572 0.10607124
0.0044858842 0.032215577 0.10562208
0.0049648392 0.032126293 0.10531829
0.0053891451 0.031731319 0.10401127
0.005861585 0.031661604 0.1037693
0.0063384892 0.031624809 0.10363387
0.0068607782 0.031803615 0.10420351
0.0073313797 0.031735007 0.103961
0.0077980743 0.031659056 0.10369299
0.0082714381 0.031617478 0.1035361
0.008731313 0.031531785 0.10323317
0.0091376789 0.031271931 0.10235867
0.0096590295 0.031411875 0.10279106
0.010009945 0.03101055 0.10145068
0.010406327 0.030780021 0.10066776
0.010998691 0.031124033 0.10176182
0.011584728 0.031422343 0.10270377
0.01208451 0.031472247 0.10283129
0.012542311 0.031413183 0.10260057
0.013001455 0.031361718 0.10239246
0.013096485 0.030466864 0.099429652
0.013274973 0.029820981 0.097279072
0.01403868 0.030488981 0.099411927
0.01446389 0.030402515 0.099081315
0.014800892 0.03014181 0.098180667
0.015156723 0.029934041 0.097450465
0.01554118 0.02979333 0.0969363
0.015902977 0.029618431 0.096308522
0.016440272 0.029771028 0.0967426
0.016920032 0.029814016 0.09681686
0.017478354 0.029989548 0.097317711
0.018151985 0.030348893 0.098410323
0.018293293 0.0298225 0.096627645
0.018486777 0.029404707 0.095195629
0.019002123 0.029506551 0.095442958
0.019624021 0.029765286 0.096192889
0.020234667 0.029995607 0.096845515
0.021042094 0.030500956 0.098379634
0.021985862 0.031177718 0.10045841
0.022144996 0.030736698 0.098930277
0.021644104 0.02941696 0.094575599
0.021954177 0.029230723 0.093866117
0.02301798 0.030035444 0.096331753
0.024279915 0.031062141 0.099497154
0.02770601 0.034764986 0.11120966
0.027590081 0.033967596 0.10850836
0.025290085 0.030560464 0.097483873
0.026058126 0.030917125 0.098474219
0.028087169 0.032730535 0.1040886
0.028038485 0.032101624 0.10192471
0.026768854 0.030120529 0.095475815
0.025363032 0.028055834 0.088778555
0.024295285 0.026427582 0.083478108
0.02771393 0.029652907 0.093495183
0.030602712 0.032216556 0.10138762
0.031896487 0.033046443 0.1037988
